ply
format ascii 1.0
element vertex 633
property float x
property float y
property float z
property uchar red
property uchar green
property uchar blue
end_header
1.26486825942993164 -0.553818821907043457 1.01836836338043213 255 255 255
1.30978250503540039 -0.630342364311218262 -1.49668824672698975 255 255 255
1.22352290153503418 -0.571790695190429688 1.01868855953216553 255 255 255
1.24644207954406738 -0.521079897880554199 -1.49874579906463623 255 255 255
1.24530577659606934 -0.519682526588439941 1.01696407794952393 255 255 255
1.2740781307220459 -0.651504635810852051 1.0182727575302124 255 255 255
1.28944540023803711 -0.594175815582275391 1.01787054538726807 255 255 255
1.28638339042663574 -0.591866970062255859 -1.49820435047149658 255 255 255
1.33005428314208984 -0.574182510375976562 -1.49809718132019043 255 255 255
1.05593085289001465 -0.566770195960998535 -1.50008034706115723 255 255 255
1.09485292434692383 -0.548949718475341797 1.01684629917144775 255 255 255
1.09612154960632324 -0.542563319206237793 -1.49902451038360596 255 255 255
1.07244277000427246 -0.510999321937561035 -1.49856388568878174 255 255 255
1.10817646980285645 -0.488205462694168091 1.01788246631622314 255 255 255
1.07010769844055176 -0.506152868270874023 1.01684820652008057 255 255 255
1.04412531852722168 -0.472257047891616821 1.01748716831207275 255 255 255
1.04711389541625977 -0.473443120718002319 -1.49799835681915283 255 255 255
1.00815677642822266 -0.489614039659500122 1.01621901988983154 255 255 255
1.09058880805969238 -0.45743677020072937 -1.49853277206420898 255 255 255
1.02402806282043457 -0.438562124967575073 -1.49850606918334961 255 255 255
0.987249910831451416 -0.457752615213394165 1.01766002178192139 255 255 255
1.11436271667480469 -0.490680783987045288 -1.4984515905380249 255 255 255
1.13509058952331543 -0.520943999290466309 1.01755893230438232 255 255 255
1.06947898864746094 -0.413338154554367065 1.01794159412384033 255 255 255
1.16085195541381836 -0.558438777923583984 -1.49858748912811279 255 255 255
1.09081840515136719 -0.445216983556747437 1.01743829250335693 255 255 255
1.14848423004150391 -0.523150444030761719 -1.49730467796325684 255 255 255
1.14904117584228516 -0.467734664678573608 1.01680839061737061 255 255 255
1.17448616027832031 -0.502846002578735352 -1.49777233600616455 255 255 255
1.17466139793395996 -0.40594443678855896 -1.49811434745788574 255 255 255
1.22050023078918457 -0.478555887937545776 1.01966273784637451 255 255 255
1.13566803932189941 -0.421431213617324829 1.01898872852325439 255 255 255
1.20654654502868652 -0.534411907196044922 1.01809322834014893 255 255 255
1.23218846321105957 -0.477732211351394653 -1.49763131141662598 255 255 255
1.13846755027770996 -0.436342149972915649 -1.49999654293060303 255 255 255
1.18268561363220215 -0.410583525896072388 1.01752603054046631 255 255 255
1.19707703590393066 -0.442658692598342896 -1.49821853637695312 255 255 255
1.10932397842407227 -0.393498986959457397 1.01763689517974854 255 255 255
1.15198659896850586 -0.46621820330619812 -1.49914240837097168 255 255 255
1.15434598922729492 -0.369046837091445923 -1.49743092060089111 255 255 255
1.11001157760620117 -0.39866754412651062 -1.49842643737792969 255 255 255
1.20308351516723633 -0.444597691297531128 1.01849806308746338 255 255 255
1.20914983749389648 -0.389669090509414673 1.01975047588348389 255 255 255
1.17500734329223633 -0.50248265266418457 1.02042853832244873 255 255 255
1.28354239463806152 -0.498500257730484009 1.01859986782073975 255 255 255
1.33494472503662109 -0.572284698486328125 1.01833617687225342 255 255 255
1.35558366775512695 -0.605090737342834473 -1.49985420703887939 255 255 255
1.31093788146972656 -0.534013867378234863 1.01747667789459229 255 255 255
1.39678072929382324 -0.588162899017333984 1.01987016201019287 255 255 255
1.34994769096374512 -0.512793064117431641 1.01912057399749756 255 255 255
1.35351037979125977 -0.606340527534484863 1.01859819889068604 255 255 255
1.30693316459655762 -0.526659488677978516 -1.49824929237365723 255 255 255
1.32488536834716797 -0.476100116968154907 -1.49738776683807373 255 255 255
1.28300666809082031 -0.496180206537246704 -1.49711298942565918 255 255 255
1.3988189697265625 -0.587438583374023438 -1.49864327907562256 255 255 255
1.37867069244384766 -0.548559188842773438 -1.49808168411254883 255 255 255
1.35364079475402832 -0.514153361320495605 -1.49850797653198242 255 255 255
1.43474030494689941 -0.571012020111083984 -1.49703562259674072 255 255 255
1.37921309471130371 -0.549302577972412109 1.0190659761428833 255 255 255
1.38709616661071777 -0.491919726133346558 -1.4977649450302124 255 255 255
1.41478419303894043 -0.528766989707946777 1.01785361766815186 255 255 255
1.41959047317504883 -0.530152082443237305 -1.49624729156494141 255 255 255
1.3894035816192627 -0.49018135666847229 1.01765573024749756 255 255 255
1.37124538421630859 -0.455355077981948853 1.01854956150054932 255 255 255
1.43017435073852539 -0.476541846990585327 1.0180739164352417 255 255 255
1.40748763084411621 -0.442238003015518188 1.02086269855499268 255 255 255
1.4447941780090332 -0.56379544734954834 1.01892292499542236 255 255 255
1.4565730094909668 -0.515863180160522461 -1.49835872650146484 255 255 255
1.48556685447692871 -0.539138674736022949 1.02042973041534424 255 255 255
1.41478824615478516 -0.433117955923080444 -1.49747109413146973 255 255 255
1.47979450225830078 -0.537469625473022461 -1.49702715873718262 255 255 255
1.45815086364746094 -0.500206708908081055 1.01859772205352783 255 255 255
1.43925833702087402 -0.464389830827713013 -1.49906539916992188 255 255 255
1.5016944408416748 -0.490160137414932251 1.0193406343460083 255 255 255
1.49936532974243164 -0.487262040376663208 -1.49598801136016846 255 255 255
1.47224950790405273 -0.445761293172836304 1.01945531368255615 255 255 255
1.51618146896362305 -0.530669331550598145 -1.49664950370788574 255 255 255
1.52228045463562012 -0.521328449249267578 1.01991069316864014 255 255 255
1.47214055061340332 -0.450979083776473999 -1.49794876575469971 255 255 255
1.35870718955993652 -0.458950430154800415 -1.49854922294616699 255 255 255
1.26431465148925781 -0.460132986307144165 1.01993644237518311 255 255 255
1.32332253456115723 -0.471763044595718384 1.01940524578094482 255 255 255
1.30377459526062012 -0.441933959722518921 1.01931536197662354 255 255 255
1.2398228645324707 -0.418286174535751343 1.01846110820770264 255 255 255
1.2794957160949707 -0.403815180063247681 -1.49837982654571533 255 255 255
1.23815059661865234 -0.419468313455581665 -1.49742400646209717 255 255 255
1.30559659004211426 -0.439422816038131714 -1.49848580360412598 255 255 255
1.25721263885498047 -0.364829212427139282 -1.49923038482666016 255 255 255
1.26984047889709473 -0.408972829580307007 1.02088439464569092 255 255 255
1.29320693016052246 -0.345152109861373901 1.01939857006072998 255 255 255
1.26858329772949219 -0.450408667325973511 -1.49865341186523438 255 255 255
1.2118372917175293 -0.384374529123306274 -1.49498319625854492 255 255 255
1.24728155136108398 -0.363663703203201294 1.0188831090927124 255 255 255
1.27038335800170898 -0.308560103178024292 1.01788771152496338 255 255 255
1.31684684753417969 -0.379614919424057007 1.01880872249603271 255 255 255
1.29360818862915039 -0.341517537832260132 -1.49810409545898438 255 255 255
1.34221029281616211 -0.418651312589645386 1.01863706111907959 255 255 255
1.34695196151733398 -0.421530276536941528 -1.49798834323883057 255 255 255
1.27696537971496582 -0.306920439004898071 -1.49804878234863281 255 255 255
1.32774806022644043 -0.376906007528305054 -1.49830770492553711 255 255 255
1.38351082801818848 -0.398149162530899048 1.01874458789825439 255 255 255
1.36901593208312988 -0.360164672136306763 -1.49897265434265137 255 255 255
1.37546157836914062 -0.30880776047706604 -1.49752533435821533 255 255 255
1.34849309921264648 -0.326926380395889282 1.01962721347808838 255 255 255
1.38420295715332031 -0.394803732633590698 -1.49888718128204346 255 255 255
1.33833742141723633 -0.327707618474960327 -1.49834108352661133 255 255 255
1.35882735252380371 -0.362313359975814819 1.01949822902679443 255 255 255
1.42527222633361816 -0.376500159502029419 1.01990926265716553 255 255 255
1.37513113021850586 -0.296219438314437866 1.01934254169464111 255 255 255
1.44645094871520996 -0.410623103380203247 -1.49768507480621338 255 255 255
1.43252158164978027 -0.3792438805103302 -1.49841094017028809 255 255 255
1.40280437469482422 -0.341756612062454224 1.01910436153411865 255 255 255
1.45163464546203613 -0.408295243978500366 1.01976025104522705 255 255 255
1.40343165397644043 -0.342473477125167847 -1.49830019474029541 255 255 255
1.02555108070373535 -0.434615820646286011 1.01667177677154541 255 255 255
0.981078207492828369 -0.447196215391159058 -1.49835526943206787 255 255 255
1.00094008445739746 -0.401879161596298218 -1.49792087078094482 255 255 255
0.939477860927581787 -0.38208279013633728 -1.49984216690063477 255 255 255
0.916061460971832275 -0.343754857778549194 -1.49836480617523193 255 255 255
0.926892340183258057 -0.293593674898147583 -1.49869787693023682 255 255 255
0.920129835605621338 -0.342912405729293823 1.0174487829208374 255 255 255
0.949438393115997314 -0.332311838865280151 1.01768648624420166 255 255 255
0.973813354969024658 -0.357887953519821167 1.01777327060699463 255 255 255
0.950721442699432373 -0.323437124490737915 -1.49651384353637695 255 255 255
0.975022852420806885 -0.356539040803909302 -1.49703371524810791 255 255 255
1.00499343872070312 -0.391629189252853394 1.01861703395843506 255 255 255
0.990723192691802979 -0.305866450071334839 -1.49785196781158447 255 255 255
1.04242086410522461 -0.375685781240463257 1.01746237277984619 255 255 255
1.0445103645324707 -0.369067877531051636 -1.49874198436737061 255 255 255
1.01825308799743652 -0.337830334901809692 1.01958215236663818 255 255 255
0.992705047130584717 -0.300220459699630737 1.0178455114364624 255 255 255
1.06714510917663574 -0.405692309141159058 -1.49614536762237549 255 255 255
1.02246856689453125 -0.335838466882705688 -1.49900949001312256 255 255 255
1.03278541564941406 -0.281089037656784058 1.01727783679962158 255 255 255
1.08269762992858887 -0.359466046094894409 -1.49698591232299805 255 255 255
1.06250405311584473 -0.317699283361434937 -1.49766767024993896 255 255 255
1.06477832794189453 -0.323612183332443237 1.01712000370025635 255 255 255
1.08654141426086426 -0.353644520044326782 1.01928937435150146 255 255 255
1.07557392120361328 -0.256221503019332886 -1.49843788146972656 255 255 255
1.03899669647216797 -0.275690823793411255 -1.49821710586547852 255 255 255
1.09922003746032715 -0.293319553136825562 -1.49624526500701904 255 255 255
1.13078808784484863 -0.327853947877883911 1.01789605617523193 255 255 255
1.14598894119262695 -0.368226796388626099 1.01793062686920166 255 255 255
1.07654500007629395 -0.257958918809890747 1.01882874965667725 255 255 255
1.11071205139160156 -0.240767627954483032 1.01756536960601807 255 255 255
1.1635744571685791 -0.314664691686630249 1.01821243762969971 255 255 255
1.12650465965270996 -0.330686002969741821 -1.49798333644866943 255 255 255
1.10312891006469727 -0.294454067945480347 1.01755869388580322 255 255 255
0.906717836856842041 -0.248207896947860718 -1.49790608882904053 255 255 255
0.973276913166046143 -0.261103540658950806 -1.49859380722045898 255 255 255
0.857666313648223877 -0.176275521516799927 1.01949775218963623 255 255 255
0.927040755748748779 -0.286425083875656128 1.01906049251556396 255 255 255
0.905751883983612061 -0.154793769121170044 1.01719367504119873 255 255 255
0.923973262310028076 -0.195100694894790649 -1.49573290348052979 255 255 255
0.919691264629364014 -0.196304827928543091 1.01686728000640869 255 255 255
0.843658268451690674 -0.233630746603012085 -1.49706339836120605 255 255 255
0.901379644870758057 -0.247109144926071167 1.01835596561431885 255 255 255
0.901679456233978271 -0.154778867959976196 -1.49508476257324219 255 255 255
0.876971304416656494 -0.205850750207901001 -1.49790692329406738 255 255 255
0.860808312892913818 -0.184470206499099731 -1.49722135066986084 255 255 255
0.952717006206512451 -0.225353866815567017 -1.49875247478485107 255 255 255
0.886957108974456787 -0.205443292856216431 1.01904714107513428 255 255 255
0.971109688282012939 -0.269105583429336548 1.01596176624298096 255 255 255
0.956070482730865479 -0.225391298532485962 1.01795661449432373 255 255 255
0.962966501712799072 -0.166851311922073364 1.01968085765838623 255 255 255
0.986434876918792725 -0.210543602705001831 1.01830184459686279 255 255 255
0.940994322299957275 -0.136313676834106445 1.01956379413604736 255 255 255
1.00824832916259766 -0.242340236902236938 1.01807677745819092 255 255 255
0.961677968502044678 -0.16540190577507019 -1.49933850765228271 255 255 255
0.987538039684295654 -0.206434041261672974 -1.4981008768081665 255 255 255
0.945840060710906982 -0.131566822528839111 -1.49651026725769043 255 255 255
1.00287866592407227 -0.149916380643844604 -1.49722385406494141 255 255 255
0.9999275803565979 -0.147165030241012573 1.01646912097930908 255 255 255
0.979505240917205811 -0.11599123477935791 -1.49701583385467529 255 255 255
1.03103280067443848 -0.193579763174057007 -1.4990767240524292 255 255 255
1.01109051704406738 -0.240370005369186401 -1.49807000160217285 255 255 255
1.0526275634765625 -0.226002663373947144 -1.49716973304748535 255 255 255
0.981073677539825439 -0.11248430609703064 1.01676666736602783 255 255 255
1.05411148071289062 -0.224273711442947388 1.01801812648773193 255 255 255
1.09856438636779785 -0.202640503644943237 -1.49712133407592773 255 255 255
1.01982212066650391 -0.0905989706516265869 -1.49568295478820801 255 255 255
1.04428863525390625 -0.126905262470245361 1.01955068111419678 255 255 255
1.02962088584899902 -0.186003118753433228 1.01651227474212646 255 255 255
1.17166471481323242 -0.315155178308486938 -1.49760925769805908 255 255 255
1.19070339202880859 -0.34269675612449646 1.01940834522247314 255 255 255
1.19527506828308105 -0.346780568361282349 -1.49909603595733643 255 255 255
1.22455763816833496 -0.323374003171920776 1.0170215368270874 255 255 255
1.23554682731628418 -0.325291544198989868 -1.4994504451751709 255 255 255
1.18825745582580566 -0.252187401056289673 1.01843416690826416 255 255 255
1.24635052680969238 -0.264108210802078247 -1.49888277053833008 255 255 255
1.22327470779418945 -0.23951295018196106 1.01884591579437256 255 255 255
1.21335697174072266 -0.289430886507034302 1.01857960224151611 255 255 255
1.19055628776550293 -0.249432891607284546 -1.4988473653793335 255 255 255
1.14470720291137695 -0.272112160921096802 -1.49788534641265869 255 255 255
1.1424705982208252 -0.279604524374008179 1.01890456676483154 255 255 255
1.20960736274719238 -0.286678522825241089 -1.49751079082489014 255 255 255
1.11890220642089844 -0.236395984888076782 -1.49915063381195068 255 255 255
1.16512370109558105 -0.21245083212852478 1.01822531223297119 255 255 255
1.20064496994018555 -0.195358425378799438 1.01959812641143799 255 255 255
1.16341066360473633 -0.212893873453140259 -1.50020706653594971 255 255 255
1.19771051406860352 -0.18956109881401062 -1.49891138076782227 255 255 255
1.23926806449890137 -0.180494397878646851 1.01780164241790771 255 255 255
1.2219693660736084 -0.230324298143386841 -1.4974057674407959 255 255 255
1.26617431640625 -0.217044025659561157 1.02058851718902588 255 255 255
1.25331497192382812 -0.267821639776229858 1.01750385761260986 255 255 255
1.24043869972229004 -0.173173040151596069 -1.49825203418731689 255 255 255
1.29142427444458008 -0.244301050901412964 -1.49830400943756104 255 255 255
1.22529911994934082 -0.141362935304641724 1.019539475440979 255 255 255
1.30782389640808105 -0.195491641759872437 1.01999986171722412 255 255 255
1.31682872772216797 -0.287406235933303833 1.01987349987030029 255 255 255
1.27137923240661621 -0.208033651113510132 -1.49792599678039551 255 255 255
1.31755256652832031 -0.281663626432418823 -1.49720573425292969 255 255 255
1.29224276542663574 -0.247889488935470581 1.01982343196868896 255 255 255
1.27902078628540039 -0.149517685174942017 -1.49775862693786621 255 255 255
1.30324816703796387 -0.187469750642776489 -1.49727416038513184 255 255 255
1.33534455299377441 -0.226450651884078979 1.02010715007781982 255 255 255
1.28252530097961426 -0.151628226041793823 1.01820600032806396 255 255 255
1.35620927810668945 -0.261700540781021118 -1.498543381690979 255 255 255
1.0965571403503418 -0.204344779253005981 1.01937711238861084 255 255 255
1.07388091087341309 -0.166954189538955688 1.01901447772979736 255 255 255
1.02786016464233398 -0.0880478322505950928 1.01975834369659424 255 255 255
1.17388248443603516 -0.159470528364181519 -1.4999241828918457 255 255 255
1.13662481307983398 -0.179330259561538696 -1.4974970817565918 255 255 255
1.15526103973388672 -0.127818912267684937 1.01842582225799561 255 255 255
1.13608145713806152 -0.175375849008560181 1.0177227258682251 255 255 255
1.1190645694732666 -0.140270739793777466 -1.49824655055999756 255 255 255
1.10936284065246582 -0.139283031225204468 1.01910030841827393 255 255 255
1.12560248374938965 -0.0778307318687438965 -1.49618983268737793 255 255 255
1.07152509689331055 -0.161078065633773804 -1.49837124347686768 255 255 255
1.08768820762634277 -0.103417962789535522 -1.49644768238067627 255 255 255
1.15032052993774414 -0.123250573873519897 -1.49719595909118652 255 255 255
1.0960085391998291 -0.105086565017700195 1.01818621158599854 255 255 255
1.05337929725646973 -0.125459045171737671 -1.49705636501312256 255 255 255
1.07483410835266113 -0.0673513710498809814 -1.49657785892486572 255 255 255
1.0623016357421875 -0.0659909248352050781 1.01717007160186768 255 255 255
1.10860967636108398 -0.0441590845584869385 1.01880824565887451 255 255 255
1.19808578491210938 -0.0935688912868499756 -1.49778282642364502 255 255 255
1.1317603588104248 -0.0849863290786743164 1.01908600330352783 255 255 255
1.18003225326538086 -0.153323978185653687 1.01935398578643799 255 255 255
1.1732032299041748 -0.0612693727016448975 1.01935160160064697 255 255 255
1.15564537048339844 -0.0279204249382019043 -1.49594151973724365 255 255 255
1.15345096588134766 -0.0270535945892333984 1.02019274234771729 255 255 255
1.16904377937316895 -0.0621683299541473389 -1.49797236919403076 255 255 255
1.10939431190490723 -0.0461310446262359619 -1.49752211570739746 255 255 255
1.21806859970092773 -0.141991943120956421 -1.49686729907989502 255 255 255
1.19658637046813965 -0.100800126791000366 1.01768338680267334 255 255 255
1.26179075241088867 -0.121583729982376099 1.01899349689483643 255 255 255
1.19031214714050293 -0.00858440995216369629 1.01888430118560791 255 255 255
1.23612594604492188 -0.0757645368576049805 -1.49744796752929688 255 255 255
1.18933200836181641 -0.00164994597434997559 -1.49854326248168945 255 255 255
1.21412348747253418 -0.0436995625495910645 -1.49891126155853271 255 255 255
1.21134853363037109 -0.0374461710453033447 1.01882731914520264 255 255 255
1.23593282699584961 -0.0771024525165557861 1.01948153972625732 255 255 255
0.471797287464141846 -0.364580124616622925 0.216773033142089844 255 255 255
0.473265349864959717 -0.359334737062454224 0.246534347534179688 255 255 255
0.473691880702972412 -0.363594383001327515 0.139707803726196289 255 255 255
0.472934305667877197 -0.360794693231582642 0.0664941072463989258 255 255 255
0.47438126802444458 -0.361262351274490356 -1.14928948879241943 255 255 255
0.472312748432159424 -0.361216753721237183 -1.1176379919052124 255 255 255
0.473661601543426514 -0.363501220941543579 -1.00244259834289551 255 255 255
0.47282034158706665 -0.361044079065322876 -0.290219902992248535 255 255 255
0.472317159175872803 -0.356440633535385132 -0.790717422962188721 255 255 255
0.46287614107131958 -0.363195925951004028 0.421784400939941406 255 255 255
0.47188490629196167 -0.360543102025985718 0.0354738235473632812 255 255 255
0.470948755741119385 -0.362033098936080933 -0.681124269962310791 255 255 255
0.474091470241546631 -0.359280496835708618 -0.43467557430267334 255 255 255
0.474410116672515869 -0.360180467367172241 -1.32953524589538574 255 255 255
0.469818651676177979 -0.361608356237411499 -0.897814095020294189 255 255 255
0.473729789257049561 -0.358201354742050171 -1.29554152488708496 255 255 255
0.468785345554351807 -0.362359672784805298 -0.830739259719848633 255 255 255
0.474199950695037842 -0.359476059675216675 -0.00592136383056640625 255 255 255
0.473610103130340576 -0.355698198080062866 -0.716672599315643311 255 255 255
0.473146140575408936 -0.357044368982315063 -0.935189187526702881 255 255 255
0.474031388759613037 -0.358243256807327271 -1.04514741897583008 255 255 255
0.470503389835357666 -0.356759458780288696 -0.756775379180908203 255 255 255
0.47555774450302124 -0.358417600393295288 -1.47579586505889893 255 255 255
0.47455209493637085 -0.357392996549606323 -0.867194294929504395 255 255 255
0.472332775592803955 -0.35956767201423645 -0.974652230739593506 255 255 255
0.477096855640411377 -0.358118504285812378 -0.108741164207458496 255 255 255
0.477188766002655029 -0.358075648546218872 -0.0704119205474853516 255 255 255
0.47672957181930542 -0.359160870313644409 -1.22390377521514893 255 255 255
0.475039422512054443 -0.357488721609115601 -0.219512104988098145 255 255 255
0.475104987621307373 -0.355371028184890747 -0.396163821220397949 255 255 255
0.475127279758453369 -0.356953829526901245 -1.40507626533508301 255 255 255
0.473686158657073975 -0.357187658548355103 0.110208272933959961 255 255 255
0.475773751735687256 -0.355352133512496948 -0.174896001815795898 255 255 255
0.476395905017852783 -0.358659356832504272 0.173048734664916992 255 255 255
0.476051270961761475 -0.355611950159072876 -0.505919933319091797 255 255 255
0.477884829044342041 -0.354543358087539673 -0.150481820106506348 255 255 255
0.475251972675323486 -0.354516416788101196 -1.08230066299438477 255 255 255
0.478339612483978271 -0.353168457746505737 -1.36613631248474121 255 255 255
0.47496563196182251 -0.355855375528335571 -0.325855016708374023 255 255 255
0.476755321025848389 -0.354641705751419067 -0.253204822540283203 255 255 255
0.478532016277313232 -0.356327980756759644 -0.0343446731567382812 255 255 255
0.476050078868865967 -0.355647236108779907 -1.44107043743133545 255 255 255
0.478740394115447998 -0.35364881157875061 -0.464316725730895996 255 255 255
0.476837217807769775 -0.353488117456436157 -0.363466620445251465 255 255 255
0.480148851871490479 -0.353708893060684204 -1.25869631767272949 255 255 255
0.482857763767242432 -0.353317230939865112 -0.538319110870361328 255 255 255
0.480133354663848877 -0.346604198217391968 0.407290101051330566 255 255 255
0.485011756420135498 -0.342159062623977661 0.238791227340698242 255 255 255
0.48230665922164917 -0.339971095323562622 -0.790171623229980469 255 255 255
0.48702472448348999 -0.338301807641983032 -0.713414788246154785 255 255 255
0.484688818454742432 -0.336577624082565308 -0.756162822246551514 255 255 255
0.485580742359161377 -0.336591988801956177 -0.68514561653137207 255 255 255
0.489937365055084229 -0.339260011911392212 -1.44661974906921387 255 255 255
0.485536634922027588 -0.331361144781112671 -0.938960850238800049 255 255 255
0.486838757991790771 -0.3403606116771698 -1.26649045944213867 255 255 255
0.49155348539352417 -0.339346915483474731 -0.542432844638824463 255 255 255
0.489767372608184814 -0.337615698575973511 -1.36198782920837402 255 255 255
0.489638388156890869 -0.338406652212142944 -1.21816742420196533 255 255 255
0.490155398845672607 -0.339022189378738403 -1.29734444618225098 255 255 255
0.488550841808319092 -0.33448299765586853 -0.464328646659851074 255 255 255
0.488512814044952393 -0.335257202386856079 -0.513879656791687012 255 255 255
0.486667215824127197 -0.330207735300064087 -0.394999861717224121 255 255 255
0.488134920597076416 -0.331610232591629028 -0.434925556182861328 255 255 255
0.492334067821502686 -0.336437016725540161 -1.31896448135375977 255 255 255
0.491521894931793213 -0.334978491067886353 -1.40755987167358398 255 255 255
0.491764962673187256 -0.336638301610946655 -1.4931187629699707 255 255 255
0.494676530361175537 -0.334540396928787231 -1.45770871639251709 255 255 255
0.4922751784324646 -0.330538660287857056 -1.15454733371734619 255 255 255
0.489839255809783936 -0.327123850584030151 -1.04301023483276367 255 255 255
0.462642490863800049 -0.326729625463485718 1.01908981800079346 255 255 255
0.463331639766693115 -0.328631192445755005 0.427716612815856934 255 255 255
0.470942914485931396 -0.328674286603927612 0.212801456451416016 255 255 255
0.470215141773223877 -0.324510723352432251 0.144065141677856445 255 255 255
0.481529176235198975 -0.331926614046096802 -0.147774457931518555 255 255 255
0.478372633457183838 -0.326873809099197388 0.0307500362396240234 255 255 255
0.480361282825469971 -0.326921969652175903 -0.11138451099395752 255 255 255
0.477532804012298584 -0.329355627298355103 -0.00335848331451416016 255 255 255
0.479754030704498291 -0.32770732045173645 -0.0747129917144775391 255 255 255
0.485795199871063232 -0.331860452890396118 -0.25610053539276123 255 255 255
0.473949849605560303 -0.325233429670333862 0.109179854393005371 255 255 255
0.478459179401397705 -0.323071211576461792 -0.0342133045196533203 255 255 255
0.482020795345306396 -0.330089956521987915 -0.224774718284606934 255 255 255
0.483690798282623291 -0.329529136419296265 -0.866442680358886719 255 255 255
0.484041988849639893 -0.32899126410484314 -1.04006671905517578 255 255 255
0.481842100620269775 -0.323745399713516235 -1.00714206695556641 255 255 255
0.48121267557144165 -0.325557082891464233 -0.827589750289916992 255 255 255
0.483009755611419678 -0.329397112131118774 -0.294342756271362305 255 255 255
0.480420172214508057 -0.322880655527114868 -0.182038784027099609 255 255 255
0.480704367160797119 -0.322305291891098022 -0.898153781890869141 255 255 255
0.481861889362335205 -0.323721200227737427 -0.968054592609405518 255 255 255
0.480879843235015869 -0.322261005640029907 -1.0811917781829834 255 255 255
0.486046493053436279 -0.32951781153678894 -0.32537376880645752 255 255 255
0.485081255435943604 -0.325387150049209595 -0.362619280815124512 255 255 255
0.484408676624298096 -0.322383612394332886 -1.18357789516448975 255 255 255
0.480637133121490479 -0.317522257566452026 -1.14990484714508057 255 255 255
0.488104760646820068 -0.324610918760299683 -1.08158087730407715 255 255 255
0.486061990261077881 -0.321837395429611206 -1.00269782543182373 255 255 255
0.486756980419158936 -0.32445254921913147 -0.933989822864532471 255 255 255
0.487460434436798096 -0.32473108172416687 -1.11994671821594238 255 255 255
0.48395305871963501 -0.317225247621536255 -0.899906814098358154 255 255 255
0.489144861698150635 -0.327405184507369995 -0.974959850311279297 255 255 255
0.483911693096160889 -0.316708475351333618 -0.825254976749420166 255 255 255
0.486317574977874756 -0.318973511457443237 -0.793447494506835938 255 255 255
0.485743701457977295 -0.322652369737625122 -0.861822128295898438 255 255 255
0.482312142848968506 -0.316677600145339966 -0.754412412643432617 255 255 255
0.467776834964752197 -0.323783844709396362 0.17958521842956543 255 255 255
0.47331160306930542 -0.319728702306747437 0.0667753219604492188 255 255 255
0.483344495296478271 -0.315740257501602173 -0.720034778118133545 255 255 255
0.442031681537628174 -0.294246524572372437 1.01748454570770264 255 255 255
0.475730478763580322 -0.29986003041267395 0.0270223617553710938 255 255 255
0.471347510814666748 -0.302652150392532349 -0.0488092899322509766 255 255 255
0.471860706806182861 -0.299101442098617554 0.0116006135940551758 255 255 255
0.473959386348724365 -0.302504032850265503 -0.0668846368789672852 255 255 255
0.474583089351654053 -0.301535516977310181 -0.113794445991516113 255 255 255
0.460492551326751709 -0.289368599653244019 -1.11634719371795654 255 255 255
0.478150665760040283 -0.31761440634727478 -1.11573171615600586 255 255 255
0.481720268726348877 -0.312008053064346313 -1.19003939628601074 255 255 255
0.479246556758880615 -0.306821733713150024 -0.184535384178161621 255 255 255
0.455194413661956787 -0.296457558870315552 0.445027589797973633 255 255 255
0.482474386692047119 -0.315793842077255249 -1.22386002540588379 255 255 255
0.47512131929397583 -0.305476576089859009 -0.144905686378479004 255 255 255
0.460653603076934814 -0.286081284284591675 -0.939036309719085693 255 255 255
0.430013000965118408 -0.299078553915023804 0.175114274024963379 255 255 255
0.458465993404388428 -0.285428375005722046 -0.971174061298370361 255 255 255
0.445619761943817139 -0.289766639471054077 0.072659611701965332 255 255 255
0.459342539310455322 -0.283278673887252808 -1.08504092693328857 255 255 255
0.458118975162506104 -0.284767657518386841 -0.793374061584472656 255 255 255
0.438688695430755615 -0.292886704206466675 0.105446100234985352 255 255 255
0.456257402896881104 -0.280801326036453247 -0.75197303295135498 255 255 255
0.43225628137588501 -0.293591171503067017 0.208185195922851562 255 255 255
0.454472243785858154 -0.281703919172286987 -0.907149970531463623 255 255 255
0.447906076908111572 -0.286104172468185425 0.031296849250793457 255 255 255
0.455438792705535889 -0.281768649816513062 -1.01173508167266846 255 255 255
0.432879865169525146 -0.293662697076797485 0.143743395805358887 255 255 255
0.454651296138763428 -0.27952691912651062 -0.825079202651977539 255 255 255
0.453204452991485596 -0.279058665037155151 -0.863458573818206787 255 255 255
0.453210413455963135 -0.274904221296310425 -0.725472629070281982 255 255 255
0.432955324649810791 -0.286294251680374146 0.45121467113494873 255 255 255
0.453502357006072998 -0.277586847543716431 -1.04523229598999023 255 255 255
0.482204020023345947 -0.312702864408493042 -0.356401443481445312 255 255 255
0.482075273990631104 -0.312570065259933472 -0.3964385986328125 255 255 255
0.481907904148101807 -0.311026662588119507 -0.431653499603271484 255 255 255
0.484864652156829834 -0.315371900796890259 -0.501845717430114746 255 255 255
0.481505215167999268 -0.312543183565139771 -0.46546638011932373 255 255 255
0.490129530429840088 -0.303898066282272339 0.222226977348327637 255 255 255
0.496335208415985107 -0.306538790464401245 -0.541901230812072754 255 255 255
0.507422745227813721 -0.316726356744766235 -1.29639172554016113 255 255 255
0.505563199520111084 -0.317911297082901001 -1.33321332931518555 255 255 255
0.511943638324737549 -0.32060733437538147 -1.49518001079559326 255 255 255
0.510050475597381592 -0.316038697957992554 -1.4033733606338501 255 255 255
0.503848373889923096 -0.312174588441848755 -0.68173825740814209 255 255 255
0.520675122737884521 -0.335517078638076782 0.378553152084350586 255 255 255
0.509674131870269775 -0.316768378019332886 -1.43659484386444092 255 255 255
0.505412161350250244 -0.318230599164962769 -1.36385762691497803 255 255 255
0.505712687969207764 -0.311494678258895874 -1.25748193264007568 255 255 255
0.524416267871856689 -0.336346238851547241 -0.583518505096435547 255 255 255
0.508019030094146729 -0.313452214002609253 0.392630577087402344 255 255 255
0.504549324512481689 -0.306342750787734985 1.01829922199249268 255 255 255
0.519670784473419189 -0.334395259618759155 -0.646698415279388428 255 255 255
0.511363685131072998 -0.315034836530685425 -1.47387254238128662 255 255 255
0.516553103923797607 -0.323180288076400757 -0.56699979305267334 255 255 255
0.519121944904327393 -0.321609050035476685 -0.663440167903900146 255 255 255
0.516800582408905029 -0.308264762163162231 0.243589043617248535 255 255 255
0.546287357807159424 -0.323956280946731567 0.26167750358581543 255 255 255
0.530259430408477783 -0.292777568101882935 0.258956432342529297 255 255 255
0.548459231853485107 -0.317134171724319458 -0.637275218963623047 255 255 255
0.551002919673919678 -0.314241498708724976 -0.590847492218017578 255 255 255
0.536155402660369873 -0.287216514348983765 -1.44422829151153564 255 255 255
0.555433571338653564 -0.311627477407455444 0.377292752265930176 255 255 255
0.540027797222137451 -0.288061052560806274 0.383637666702270508 255 255 255
0.53842085599899292 -0.280593127012252808 -1.47186756134033203 255 255 255
0.541382372379302979 -0.279024630784988403 -1.40408146381378174 255 255 255
0.537575662136077881 -0.281209796667098999 -1.29800832271575928 255 255 255
0.477644860744476318 -0.306797951459884644 -0.324461936950683594 255 255 255
0.464458286762237549 -0.286221593618392944 -0.71225428581237793 255 255 255
0.476867377758026123 -0.307120412588119507 -0.218205928802490234 255 255 255
0.477495849132537842 -0.304513484239578247 -0.253304004669189453 255 255 255
0.477127730846405029 -0.306177347898483276 -0.293041706085205078 255 255 255
0.467860519886016846 -0.28264889121055603 -0.00342381000518798828 255 255 255
0.469587504863739014 -0.279786974191665649 -0.21518254280090332 255 255 255
0.467669904232025146 -0.277808040380477905 -0.180985450744628906 255 255 255
0.46801227331161499 -0.278622537851333618 -0.146503090858459473 255 255 255
0.458059251308441162 -0.276829272508621216 -1.18780970573425293 255 255 255
0.465871512889862061 -0.282056540250778198 0.0272055864334106445 255 255 255
0.467575490474700928 -0.279430240392684937 -0.257090330123901367 255 255 255
0.46833878755569458 -0.279278188943862915 -0.0754702091217041016 255 255 255
0.469149768352508545 -0.274832159280776978 -0.326053857803344727 255 255 255
0.466070353984832764 -0.271589905023574829 -0.109598159790039062 255 255 255
0.466539323329925537 -0.274835318326950073 -1.22687649726867676 255 255 255
0.468652188777923584 -0.274873286485671997 -0.360972881317138672 255 255 255
0.470122873783111572 -0.278170198202133179 -0.434763312339782715 255 255 255
0.467664062976837158 -0.272512465715408325 -0.396761536598205566 255 255 255
0.468492329120635986 -0.274562269449234009 -0.472524046897888184 255 255 255
0.471917927265167236 -0.278644949197769165 0.216385841369628906 255 255 255
0.487627565860748291 -0.299276143312454224 0.413351178169250488 255 255 255
0.475032627582550049 -0.278706878423690796 -0.50850379467010498 255 255 255
0.498066961765289307 -0.274383276700973511 0.405314207077026367 255 255 255
0.539041817188262939 -0.278220444917678833 -1.26079785823822021 255 255 255
0.482545793056488037 -0.267827898263931274 0.429630875587463379 255 255 255
0.477645933628082275 -0.267756432294845581 1.01926887035369873 255 255 255
0.51924210786819458 -0.249676138162612915 -1.2545543909072876 255 255 255
0.498434364795684814 -0.263297945261001587 0.236513614654541016 255 255 255
0.516098916530609131 -0.247270017862319946 0.254337430000305176 255 255 255
0.519523084163665771 -0.246580988168716431 0.398237466812133789 255 255 255
0.497768580913543701 -0.271979480981826782 -1.2472541332244873 255 255 255
0.486149132251739502 -0.275600224733352661 -0.696615695953369141 255 255 255
0.523487508296966553 -0.255709379911422729 1.0185624361038208 255 255 255
0.495142281055450439 -0.280572623014450073 -0.5303230881690979 255 255 255
0.549346029758453369 -0.293047040700912476 -1.49470746517181396 255 255 255
0.563754141330718994 -0.313604205846786499 0.358217239379882812 255 255 255
0.550801455974578857 -0.285681754350662231 0.270942449569702148 255 255 255
0.558053195476531982 -0.292921870946884155 -0.657070279121398926 255 255 255
0.558171331882476807 -0.295369595289230347 -0.573378145694732666 255 255 255
0.586742937564849854 -0.293317884206771851 0.358318924903869629 255 255 255
0.54769057035446167 -0.282916337251663208 1.01677095890045166 255 255 255
0.59075850248336792 -0.294658094644546509 0.320652961730957031 255 255 255
0.582630693912506104 -0.267996400594711304 1.01843464374542236 255 255 255
0.584524452686309814 -0.271819859743118286 -0.57683253288269043 255 255 255
0.595736801624298096 -0.293345600366592407 0.291414499282836914 255 255 255
0.594452321529388428 -0.291140466928482056 -0.609532654285430908 255 255 255
0.583923280239105225 -0.262946754693984985 -0.652503430843353271 255 255 255
0.582079231739044189 -0.261431187391281128 -1.49642455577850342 255 255 255
0.541571438312530518 -0.278713375329971313 -1.33130943775177002 255 255 255
0.545317113399505615 -0.277320772409439087 -0.676103353500366211 255 255 255
0.566399991512298584 -0.268883079290390015 0.375731468200683594 255 255 255
0.543634712696075439 -0.272392004728317261 -1.37056517601013184 255 255 255
0.538855254650115967 -0.273845523595809937 -0.552003383636474609 255 255 255
0.564272701740264893 -0.255380958318710327 -0.672669172286987305 255 255 255
0.558450877666473389 -0.255538374185562134 -1.39566361904144287 255 255 255
0.557167589664459229 -0.257501333951950073 -1.25444841384887695 255 255 255
0.560363352298736572 -0.255675584077835083 -1.43823933601379395 255 255 255
0.561103761196136475 -0.231361478567123413 1.01841890811920166 255 255 255
0.558413326740264893 -0.257113784551620483 -1.2872699499130249 255 255 255
0.524120986461639404 -0.25321081280708313 -0.686758577823638916 255 255 255
0.563261806964874268 -0.255970567464828491 -1.47273123264312744 255 255 255
0.569541037082672119 -0.24613460898399353 0.270041823387145996 255 255 255
0.556816518306732178 -0.256607741117477417 -1.35972976684570312 255 255 255
0.556794226169586182 -0.255834728479385376 -1.33290064334869385 255 255 255
0.571479260921478271 -0.242128163576126099 -1.3343195915222168 255 255 255
0.524464786052703857 -0.249876230955123901 -0.530549466609954834 255 255 255
0.563211619853973389 -0.227130919694900513 -0.684090018272399902 255 255 255
0.559079945087432861 -0.230214387178421021 0.384986400604248047 255 255 255
0.563942372798919678 -0.224613159894943237 -0.546314239501953125 255 255 255
0.568556487560272217 -0.231817096471786499 -1.26009845733642578 255 255 255
0.57162100076675415 -0.238329619169235229 -1.37012624740600586 255 255 255
0.573855221271514893 -0.23869660496711731 -1.40337693691253662 255 255 255
0.575904190540313721 -0.240580290555953979 -1.47352099418640137 255 255 255
0.573706209659576416 -0.237703710794448853 -1.2950437068939209 255 255 255
0.590725719928741455 -0.265670925378799438 0.362856149673461914 255 255 255
0.588640391826629639 -0.263167291879653931 0.272664189338684082 255 255 255
0.585562050342559814 -0.2345295250415802 0.371642112731933594 255 255 255
0.577981650829315186 -0.238175302743911743 -1.44389104843139648 255 255 255
0.581120550632476807 -0.235666960477828979 -1.49428844451904297 255 255 255
0.601739704608917236 -0.276685863733291626 -0.616215050220489502 255 255 255
0.611531317234039307 -0.275789827108383179 0.323293209075927734 255 255 255
0.619406640529632568 -0.241357296705245972 -0.583983302116394043 255 255 255
0.588180482387542725 -0.237824827432632446 -0.56554025411605835 255 255 255
0.597467124462127686 -0.21199992299079895 -1.44059109687805176 255 255 255
0.625651180744171143 -0.250005453824996948 -1.49520456790924072 255 255 255
0.621234714984893799 -0.238062292337417603 -0.640686869621276855 255 255 255
0.599090158939361572 -0.206487089395523071 -1.29926431179046631 255 255 255
0.604101240634918213 -0.210901051759719849 0.268296241760253906 255 255 255
0.601176917552947998 -0.203683704137802124 -1.33005809783935547 255 255 255
0.606243312358856201 -0.213822871446609497 0.364157795906066895 255 255 255
0.602052628993988037 -0.204161792993545532 -1.36607789993286133 255 255 255
0.604690492153167725 -0.209184020757675171 -1.49375629425048828 255 255 255
0.599688231945037842 -0.205291599035263062 -1.40650951862335205 255 255 255
0.644369900226593018 -0.21637609601020813 -0.63112175464630127 255 255 255
0.605334579944610596 -0.203754216432571411 -1.47220098972320557 255 255 255
0.622908532619476318 -0.239487797021865845 0.284412860870361328 255 255 255
0.612263143062591553 -0.216325908899307251 -0.567916512489318848 255 255 255
0.623166263103485107 -0.243500798940658569 0.352204203605651855 255 255 255
0.63246077299118042 -0.250858932733535767 0.320374727249145508 255 255 255
0.635583341121673584 -0.245289355516433716 -0.611947894096374512 255 255 255
0.625704467296600342 -0.241540461778640747 1.01835858821868896 255 255 255
0.606105148792266846 -0.210475891828536987 1.01791894435882568 255 255 255
0.611878335475921631 -0.216376215219497681 -0.657875001430511475 255 255 255
0.653523266315460205 -0.217411965131759644 0.297769904136657715 255 255 255
0.426190435886383057 -0.280139178037643433 -0.325903415679931641 255 255 255
0.423022449016571045 -0.273151248693466187 -1.19383490085601807 255 255 255
0.412490546703338623 -0.276970833539962769 -1.15035676956176758 255 255 255
0.419091165065765381 -0.271889775991439819 -0.217761039733886719 255 255 255
0.416937053203582764 -0.27423134446144104 0.0356621742248535156 255 255 255
0.406232774257659912 -0.279473394155502319 0.101493477821350098 255 255 255
0.416591107845306396 -0.273050218820571899 -0.174313187599182129 255 255 255
0.407659232616424561 -0.273856312036514282 0.0715427398681640625 255 255 255
0.419905602931976318 -0.270147353410720825 -0.14262545108795166 255 255 255
0.42184525728225708 -0.267544835805892944 -1.22395575046539307 255 255 255
0.414642751216888428 -0.271238714456558228 -0.0336719751358032227 255 255 255
0.4199332594871521 -0.272975176572799683 -0.121315717697143555 255 255 255
0.411789357662200928 -0.273400872945785522 -0.255468606948852539 255 255 255
0.416635692119598389 -0.261564701795578003 -1.25642645359039307 255 255 255
0.4244193434715271 -0.272618740797042847 -1.11735892295837402 255 255 255
0.427989542484283447 -0.278336971998214722 -0.358036279678344727 255 255 255
0.422149598598480225 -0.270643085241317749 -0.28924250602722168 255 255 255
0.424343883991241455 -0.270066291093826294 -0.0746295452117919922 255 255 255
0.415351927280426025 -0.255385309457778931 -0.938094675540924072 255 255 255
0.42425161600112915 -0.269278019666671753 -0.00370907783508300781 255 255 255
0.427308976650238037 -0.271574467420578003 -0.371333956718444824 255 255 255
0.421664416790008545 -0.263030678033828735 -1.00936770439147949 255 255 255
0.420862972736358643 -0.261164218187332153 -0.430717229843139648 255 255 255
0.425857603549957275 -0.268291383981704712 -0.394310832023620605 255 255 255
0.426940619945526123 -0.269640058279037476 0.225014567375183105 255 255 255
0.428558051586151123 -0.268505841493606567 -1.08072614669799805 255 255 255
0.426733553409576416 -0.257682770490646362 0.459803581237792969 255 255 255
0.431780993938446045 -0.272499769926071167 -0.382370352745056152 255 255 255
0.43356090784072876 -0.274406164884567261 -0.220850467681884766 255 255 255
0.426921665668487549 -0.264384597539901733 -1.04294395446777344 255 255 255
0.437058150768280029 -0.275519102811813354 -0.288808703422546387 255 255 255
0.436340034008026123 -0.273645371198654175 -0.14483952522277832 255 255 255
0.436725080013275146 -0.27415195107460022 -0.0748932361602783203 255 255 255
0.439021766185760498 -0.273729413747787476 -0.00329709053039550781 255 255 255
0.428277790546417236 -0.258318394422531128 -0.971643030643463135 255 255 255
0.4374045729637146 -0.275173872709274292 -0.262830376625061035 255 255 255
0.440108358860015869 -0.272552996873855591 -0.185075283050537109 255 255 255
0.4375266432762146 -0.274746209383010864 -0.108557224273681641 255 255 255
0.423089206218719482 -0.251058489084243774 -0.899310827255249023 255 255 255
0.440101087093353271 -0.27244231104850769 -1.18455123901367188 255 255 255
0.440726578235626221 -0.275697320699691772 -1.14674603939056396 255 255 255
0.439662635326385498 -0.275091260671615601 -0.0305054187774658203 255 255 255
0.427485644817352295 -0.247468382120132446 -0.759812474250793457 255 255 255
0.443300783634185791 -0.268498092889785767 -1.22687280178070068 255 255 255
0.431204140186309814 -0.248910576105117798 -0.727066874504089355 255 255 255
0.443688333034515381 -0.262541443109512329 -0.331156015396118164 255 255 255
0.44829636812210083 -0.264404326677322388 -1.09121668338775635 255 255 255
0.442989528179168701 -0.259219855070114136 -1.0842738151550293 255 255 255
0.452428877353668213 -0.267202228307723999 -1.11654543876647949 255 255 255
0.446816027164459229 -0.261031419038772583 -1.10826611518859863 255 255 255
0.456700265407562256 -0.276018887758255005 -1.1562114953994751 255 255 255
0.448011100292205811 -0.26090201735496521 -1.13724076747894287 255 255 255
0.455803930759429932 -0.266236215829849243 0.450389981269836426 255 255 255
0.465769827365875244 -0.271272629499435425 -0.289284825325012207 255 255 255
0.46633678674697876 -0.272243231534957886 -0.041782379150390625 255 255 255
0.451076328754425049 -0.240593641996383667 -0.361740708351135254 255 255 255
0.450802743434906006 -0.23877987265586853 -0.433134794235229492 255 255 255
0.45250171422958374 -0.241568118333816528 -0.398431658744812012 255 255 255
0.451378881931304932 -0.239955335855484009 -0.216980576515197754 255 255 255
0.460029184818267822 -0.250322312116622925 -1.23658037185668945 255 255 255
0.462334811687469482 -0.251293212175369263 -0.491176843643188477 255 255 255
0.453301131725311279 -0.239447206258773804 -0.180812835693359375 255 255 255
0.451666772365570068 -0.23651537299156189 -0.145045280456542969 255 255 255
0.453665792942047119 -0.233669191598892212 -0.255171060562133789 255 255 255
0.450907886028289795 -0.241337865591049194 -0.04048919677734375 255 255 255
0.45832592248916626 -0.240764230489730835 0.0220714807510375977 255 255 255
0.454899847507476807 -0.235189646482467651 -0.0726274251937866211 255 255 255
0.457580029964447021 -0.238796085119247437 -0.00211668014526367188 255 255 255
0.480128705501556396 -0.239849239587783813 -0.698437869548797607 255 255 255
0.459214866161346436 -0.234205037355422974 -0.46852266788482666 255 255 255
0.452329695224761963 -0.235842376947402954 -0.32691347599029541 255 255 255
0.454687416553497314 -0.234867841005325317 -0.108923435211181641 255 255 255
0.450179040431976318 -0.236615091562271118 -0.288267135620117188 255 255 255
0.454307496547698975 -0.231045633554458618 1.01937615871429443 255 255 255
0.453909933567047119 -0.23347887396812439 0.24321901798248291 255 255 255
0.410937607288360596 -0.251427263021469116 0.245050311088562012 255 255 255
0.450224339962005615 -0.233197182416915894 -1.26466143131256104 255 255 255
0.414914071559906006 -0.251960903406143188 1.01890671253204346 255 255 255
0.415548026561737061 -0.248502582311630249 -0.865060687065124512 255 255 255
0.410873711109161377 -0.251371592283248901 -0.462574958801269531 255 255 255
0.451395690441131592 -0.230857700109481812 0.458817362785339355 255 255 255
0.455251514911651611 -0.228032976388931274 -0.710185587406158447 255 255 255
0.417364656925201416 -0.248509615659713745 -0.827175617218017578 255 255 255
0.416109263896942139 -0.24434778094291687 -0.790819108486175537 255 255 255
0.408639490604400635 -0.243173331022262573 -1.28197813034057617 255 255 255
0.431756794452667236 -0.225912123918533325 -1.28028368949890137 255 255 255
0.434642612934112549 -0.214302629232406616 0.258733630180358887 255 255 255
0.395715296268463135 -0.232628017663955688 0.261707305908203125 255 255 255
0.397751748561859131 -0.222929865121841431 -0.471669316291809082 255 255 255
0.388770043849945068 -0.22845342755317688 -0.744254767894744873 255 255 255
0.399524271488189697 -0.217178910970687866 -0.733162224292755127 255 255 255
0.431524813175201416 -0.198778778314590454 -1.2963787317276001 255 255 255
0.440216600894927979 -0.200838595628738403 -0.727611839771270752 255 255 255
0.394061505794525146 -0.218800991773605347 -1.30026745796203613 255 255 255
0.438821136951446533 -0.194922298192977905 0.470986485481262207 255 255 255
0.428331553936004639 -0.19839826226234436 -0.469371795654296875 255 255 255
0.389601647853851318 -0.217842966318130493 1.01809489727020264 255 255 255
0.428314507007598877 -0.194625169038772583 1.01898729801177979 255 255 255
0.39393538236618042 -0.212506681680679321 0.478638172149658203 255 255 255
0.38332897424697876 -0.21284136176109314 0.274317741394042969 255 255 255
0.370701134204864502 -0.206862777471542358 0.485238075256347656 255 255 255
0.397500693798065186 -0.195326000452041626 -1.31544148921966553 255 255 255
