ply
format ascii 1.0
element vertex 636
property float x
property float y
property float z
property uchar red
property uchar green
property uchar blue
end_header
-0.189778417348861694 1.00089263916015625 0.563798427581787109 255 255 255
-0.211307317018508911 0.976099014282226562 0.564864158630371094 255 255 255
-0.237485945224761963 0.992223739624023438 0.562349319458007812 255 255 255
-0.273072779178619385 1.00858497619628906 0.56191563606262207 255 255 255
-0.305327832698822021 1.02643775939941406 0.562929153442382812 255 255 255
-0.283357411623001099 1.05575180053710938 0.565090417861938477 255 255 255
-0.264525890350341797 1.088897705078125 0.562226533889770508 255 255 255
-0.244627892971038818 1.11562347412109375 0.563624858856201172 255 255 255
-0.378529489040374756 1.115020751953125 0.562437295913696289 255 255 255
-0.28895258903503418 1.184356689453125 0.560940742492675781 255 255 255
-0.225002199411392212 1.15057373046875 0.562451839447021484 255 255 255
-0.320505201816558838 1.07803535461425781 0.56244206428527832 255 255 255
-0.297922104597091675 1.11178016662597656 0.561964273452758789 255 255 255
-0.326566487550735474 1.1274871826171875 0.56148529052734375 255 255 255
-0.352408528327941895 1.09125328063964844 0.562763214111328125 255 255 255
-0.372903108596801758 1.07145118713378906 0.562227964401245117 255 255 255
-0.397972732782363892 1.08359146118164062 0.561210393905639648 255 255 255
-0.307873934507369995 1.15280723571777344 0.563510417938232422 255 255 255
-0.251924902200698853 1.16029739379882812 0.562103509902954102 255 255 255
-0.275872260332107544 1.13418006896972656 0.562283515930175781 255 255 255
-0.338640868663787842 1.16790199279785156 0.559609413146972656 255 255 255
-0.399232089519500732 1.16201210021972656 0.560403823852539062 255 255 255
-0.32068103551864624 1.19705390930175781 0.560502052307128906 255 255 255
-0.368933171033859253 1.14724922180175781 0.561788558959960938 255 255 255
-0.415925920009613037 1.1334991455078125 0.558339834213256836 255 255 255
-0.33963736891746521 0.927621841430664062 0.563959360122680664 255 255 255
-0.228862479329109192 0.945573806762695312 0.56524968147277832 255 255 255
-0.325678706169128418 1.00032806396484375 0.565099239349365234 255 255 255
-0.321363657712936401 0.956531524658203125 0.565518379211425781 255 255 255
-0.262315422296524048 0.96306610107421875 0.565034866333007812 255 255 255
-0.292999148368835449 0.9842376708984375 0.563363075256347656 255 255 255
-0.283261924982070923 0.934320449829101562 0.566137552261352539 255 255 255
-0.250400841236114502 0.911769866943359375 0.566851377487182617 255 255 255
-0.30667605996131897 0.907787322998046875 0.566224336624145508 255 255 255
-0.277733862400054932 0.88953399658203125 0.564508914947509766 255 255 255
-0.331879913806915283 0.87906646728515625 0.563421964645385742 255 255 255
-0.293668508529663086 0.859006881713867188 0.567745447158813477 255 255 255
-0.360947877168655396 0.891614913940429688 0.56340336799621582 255 255 255
-0.310744345188140869 0.832866668701171875 0.565276861190795898 255 255 255
-0.349083393812179565 0.85163116455078125 0.56443476676940918 255 255 255
-0.372414320707321167 0.943181991577148438 0.562250375747680664 255 255 255
-0.394812077283859253 0.915441513061523438 0.562988519668579102 255 255 255
-0.419561207294464111 0.890703201293945312 0.563797473907470703 255 255 255
-0.358895301818847656 0.97731781005859375 0.563020706176757812 255 255 255
-0.360943138599395752 1.02472496032714844 0.562773942947387695 255 255 255
-0.407778024673461914 0.965785980224609375 0.562711954116821289 255 255 255
-0.429295569658279419 0.9362640380859375 0.564035892486572266 255 255 255
-0.381897211074829102 0.99758148193359375 0.563204526901245117 255 255 255
-0.450511544942855835 0.910161972045898438 0.563858985900878906 255 255 255
-0.344271987676620483 1.04996681213378906 0.560028791427612305 255 255 255
-0.410962313413619995 1.01248741149902344 0.562038421630859375 255 255 255
-0.394365847110748291 1.03646278381347656 0.56106257438659668 255 255 255
-0.450938880443572998 1.02659797668457031 0.561689853668212891 255 255 255
-0.469592660665512085 1.00128555297851562 0.561783313751220703 255 255 255
-0.493979662656784058 0.9751129150390625 0.561153888702392578 255 255 255
-0.514149963855743408 0.9498138427734375 0.561954975128173828 255 255 255
-0.44211876392364502 0.98091888427734375 0.562620401382446289 255 255 255
-0.505814850330352783 1.02194786071777344 0.561652660369873047 255 255 255
-0.463081330060958862 0.9543304443359375 0.560934066772460938 255 255 255
-0.438980787992477417 1.10209465026855469 0.560403108596801758 255 255 255
-0.458200901746749878 1.07823753356933594 0.561644315719604492 255 255 255
-0.479243844747543335 1.04677391052246094 0.561389684677124023 255 255 255
-0.427234500646591187 1.05646133422851562 0.562651634216308594 255 255 255
-0.377834588289260864 1.19350624084472656 0.560151576995849609 255 255 255
-0.403283357620239258 1.21158981323242188 0.55972743034362793 255 255 255
-0.449691832065582275 1.14872169494628906 0.559260845184326172 255 255 255
-0.429620802402496338 1.17929458618164062 0.560207605361938477 255 255 255
-0.477487176656723022 1.12471199035644531 0.560998916625976562 255 255 255
-0.508791089057922363 1.26603317260742188 0.555652856826782227 255 255 255
-0.443155914545059204 1.22722625732421875 0.559828042984008789 255 255 255
-0.471984654664993286 1.24667549133300781 0.558122396469116211 255 255 255
-0.462360888719558716 1.20061874389648438 0.559014797210693359 255 255 255
-0.491159379482269287 1.21611785888671875 0.557809829711914062 255 255 255
-0.478106439113616943 1.16835212707519531 0.559677600860595703 255 255 255
-0.523236691951751709 1.23781204223632812 0.557201385498046875 255 255 255
-0.516234636306762695 1.1916961669921875 0.55692744255065918 255 255 255
-0.548235416412353516 1.2099761962890625 0.557410955429077148 255 255 255
-0.482750535011291504 1.29176521301269531 0.556341886520385742 255 255 255
-0.423343002796173096 1.25629615783691406 0.558887481689453125 255 255 255
-0.535338461399078369 1.15976715087890625 0.557971954345703125 255 255 255
-0.506430327892303467 1.14348030090332031 0.558842897415161133 255 255 255
-0.568997502326965332 1.18005752563476562 0.558112621307373047 255 255 255
-0.51288306713104248 1.3115081787109375 0.556642293930053711 255 255 255
-0.56768333911895752 1.25772285461425781 0.555607080459594727 255 255 255
-0.603654026985168457 1.20031166076660156 0.556866645812988281 255 255 255
-0.548877358436584473 1.32724571228027344 0.555145025253295898 255 255 255
-0.579652786254882812 1.22840118408203125 0.556610822677612305 255 255 255
-0.588418066501617432 1.27268791198730469 0.555194377899169922 255 255 255
-0.572824716567993164 1.30543899536132812 0.554648876190185547 255 255 255
-0.609767317771911621 1.24768257141113281 0.55681300163269043 255 255 255
-0.661526143550872803 1.31158828735351562 0.552708864212036133 255 255 255
-0.636765718460083008 1.34089279174804688 0.553932428359985352 255 255 255
-0.678717315196990967 1.28504562377929688 0.552999019622802734 255 255 255
-0.703223466873168945 1.25800132751464844 0.55521082878112793 255 255 255
-0.647782087326049805 1.26634979248046875 0.556367635726928711 255 255 255
-0.601783931255340576 1.32365608215332031 0.553801059722900391 255 255 255
-0.627398133277893066 1.29490089416503906 0.555795669555664062 255 255 255
-0.637804746627807617 1.21837806701660156 0.556045770645141602 255 255 255
-0.671805143356323242 1.23491859436035156 0.556778192520141602 255 255 255
-0.538084983825683594 1.28220748901367188 0.556040763854980469 255 255 255
-0.560837328433990479 1.13875961303710938 0.559935808181762695 255 255 255
-0.495746701955795288 1.09459114074707031 0.558640003204345703 255 255 255
-0.526296138763427734 1.11455154418945312 0.558581829071044922 255 255 255
-0.59404444694519043 1.1541900634765625 0.555954456329345703 255 255 255
-0.612355053424835205 1.12569999694824219 0.557211399078369141 255 255 255
-0.578754603862762451 1.10561752319335938 0.557589292526245117 255 255 255
-0.514556467533111572 1.06572914123535156 0.559844493865966797 255 255 255
-0.550530016422271729 1.08585929870605469 0.55939173698425293 255 255 255
-0.568247795104980469 1.06102752685546875 0.561138629913330078 255 255 255
-0.560042202472686768 1.00656318664550781 0.560164928436279297 255 255 255
-0.589248180389404297 1.02738380432128906 0.558914899826049805 255 255 255
-0.677070319652557373 1.03859329223632812 0.559453725814819336 255 255 255
-0.527075231075286865 0.994455337524414062 0.558700323104858398 255 255 255
-0.536127924919128418 1.0364227294921875 0.560377836227416992 255 255 255
-0.639338254928588867 1.09215164184570312 0.557239055633544922 255 255 255
-0.629023373126983643 1.0480804443359375 0.559061288833618164 255 255 255
-0.660740494728088379 1.06275558471679688 0.558362722396850586 255 255 255
-0.607660889625549316 1.07691574096679688 0.5582733154296875 255 255 255
-0.67014014720916748 1.11488914489746094 0.556601762771606445 255 255 255
-0.651629149913787842 1.1401519775390625 0.556535959243774414 255 255 255
-0.627567410469055176 1.17506027221679688 0.557777643203735352 255 255 255
-0.717609405517578125 1.06133460998535156 0.557311534881591797 255 255 255
-0.737510263919830322 1.07775688171386719 0.556349277496337891 255 255 255
-0.683503150939941406 1.15838623046875 0.5551300048828125 255 255 255
-0.661727547645568848 1.187652587890625 0.557539701461791992 255 255 255
-0.696017205715179443 1.09041786193847656 0.555014610290527344 255 255 255
-0.702874541282653809 1.13341712951660156 0.555739402770996094 255 255 255
-0.75357353687286377 1.19932937622070312 0.554657936096191406 255 255 255
-0.736750125885009766 1.1484527587890625 0.554284095764160156 255 255 255
-0.80865556001663208 1.11283302307128906 0.556160211563110352 255 255 255
-0.727787256240844727 1.22526359558105469 0.555951356887817383 255 255 255
-0.715131402015686035 1.18082427978515625 0.555814981460571289 255 255 255
-0.778593957424163818 1.09939765930175781 0.555981874465942383 255 255 255
-0.79100489616394043 1.13894271850585938 0.552213430404663086 255 255 255
-0.695311903953552246 1.2125396728515625 0.555173397064208984 255 255 255
-0.757817625999450684 1.11769485473632812 0.556556224822998047 255 255 255
-0.768996715545654297 1.17388343811035156 0.555957794189453125 255 255 255
-0.727195382118225098 1.1098480224609375 0.555816411972045898 255 255 255
-0.291808813810348511 0.81542205810546875 0.566470623016357422 255 255 255
-0.369923055171966553 0.818773269653320312 0.564549922943115234 255 255 255
-0.412892937660217285 0.762798309326171875 0.564647912979125977 255 255 255
-0.34105837345123291 0.797651290893554688 0.566370964050292969 255 255 255
-0.363114833831787109 0.782526016235351562 0.563952922821044922 255 255 255
-0.381807386875152588 0.751232147216796875 0.565824747085571289 255 255 255
-0.388362199068069458 0.79203033447265625 0.564412117004394531 255 255 255
-0.405234754085540771 0.714054107666015625 0.565485477447509766 255 255 255
-0.425066560506820679 0.692728042602539062 0.566801309585571289 255 255 255
-0.458544105291366577 0.709957122802734375 0.564794063568115234 255 255 255
-0.428335011005401611 0.809497833251953125 0.562396526336669922 255 255 255
-0.439612358808517456 0.737071990966796875 0.564794301986694336 255 255 255
-0.407195627689361572 0.83685302734375 0.564581871032714844 255 255 255
-0.471603631973266602 0.747629165649414062 0.564431905746459961 255 255 255
-0.452203899621963501 0.78252410888671875 0.56299138069152832 255 255 255
-0.384985059499740601 0.869298934936523438 0.564754962921142578 255 255 255
-0.438523203134536743 0.858919143676757812 0.562165260314941406 255 255 255
-0.462393045425415039 0.830808639526367188 0.562969207763671875 255 255 255
-0.50628662109375 0.775621414184570312 0.563132047653198242 255 255 255
-0.485117942094802856 0.804262161254882812 0.563924312591552734 255 255 255
-0.491616010665893555 0.845209121704101562 0.564163446426391602 255 255 255
-0.540244460105895996 0.786664962768554688 0.562687873840332031 255 255 255
-0.516078650951385498 0.816326141357421875 0.561974763870239258 255 255 255
-0.47460639476776123 0.878980636596679688 0.559846162796020508 255 255 255
-0.499944508075714111 0.898984909057617188 0.562790870666503906 255 255 255
-0.54605710506439209 0.837766647338867188 0.561715364456176758 255 255 255
-0.568631649017333984 0.811511993408203125 0.562801837921142578 255 255 255
-0.524421334266662598 0.871694564819335938 0.562105178833007812 255 255 255
-0.590676784515380859 0.78607940673828125 0.562100887298583984 255 255 255
-0.537908196449279785 0.919752120971679688 0.562310934066772461 255 255 255
-0.487241417169570923 0.924503326416015625 0.561065912246704102 255 255 255
-0.588472902774810791 0.909946441650390625 0.560808897018432617 255 255 255
-0.600557684898376465 0.832685470581054688 0.561630487442016602 255 255 255
-0.637352824211120605 0.845426559448242188 0.56032109260559082 255 255 255
-0.573437392711639404 0.932596206665039062 0.55994105339050293 255 255 255
-0.556842803955078125 0.886445999145507812 0.561656713485717773 255 255 255
-0.585851192474365234 0.859556198120117188 0.5590972900390625 255 255 255
-0.613117098808288574 0.876050949096679688 0.561758041381835938 255 255 255
-0.443024486303329468 0.662052154541015625 0.568958759307861328 255 255 255
-0.477731108665466309 0.68051910400390625 0.568115234375 255 255 255
-0.48399662971496582 0.562498092651367188 0.577362060546875 255 255 255
-0.516693234443664551 0.573030471801757812 0.574415922164916992 255 255 255
-0.493627011775970459 0.602960586547851562 0.57347416877746582 255 255 255
-0.46242329478263855 0.58739471435546875 0.573658466339111328 255 255 255
-0.469353467226028442 0.629667282104492188 0.571475982666015625 255 255 255
-0.501326799392700195 0.64935302734375 0.569867610931396484 255 255 255
-0.527252018451690674 0.622648239135742188 0.572548151016235352 255 255 255
-0.551117122173309326 0.596017837524414062 0.575529575347900391 255 255 255
-0.509197652339935303 0.692598342895507812 0.565921783447265625 255 255 255
-0.539163768291473389 0.670103073120117188 0.569663286209106445 255 255 255
-0.496305465698242188 0.7274627685546875 0.565280914306640625 255 255 255
-0.580357134342193604 0.612873077392578125 0.573353767395019531 255 255 255
-0.610382795333862305 0.629726409912109375 0.570853948593139648 255 255 255
-0.555719614028930664 0.641530990600585938 0.570661783218383789 255 255 255
-0.549920201301574707 0.715503692626953125 0.566522121429443359 255 255 255
-0.591007649898529053 0.663177490234375 0.570468902587890625 255 255 255
-0.572130799293518066 0.689588546752929688 0.568733930587768555 255 255 255
-0.53140634298324585 0.741998672485351562 0.563899040222167969 255 255 255
-0.578067243099212646 0.732835769653320312 0.564438819885253906 255 255 255
-0.627284705638885498 0.6787109375 0.569058418273925781 255 255 255
-0.556878745555877686 0.765081405639648438 0.564021587371826172 255 255 255
-0.653889715671539307 0.6475982666015625 0.570534467697143555 255 255 255
-0.669643759727478027 0.750249862670898438 0.562685728073120117 255 255 255
-0.68865966796875 0.718332290649414062 0.565191745758056641 255 255 255
-0.648974299430847168 0.776247024536132812 0.562011480331420898 255 255 255
-0.613381803035736084 0.75428009033203125 0.563294410705566406 255 255 255
-0.678112208843231201 0.794490814208984375 0.561205625534057617 255 255 255
-0.62748420238494873 0.805294036865234375 0.560226678848266602 255 255 255
-0.700227260589599609 0.768053054809570312 0.562712430953979492 255 255 255
-0.60434800386428833 0.712436676025390625 0.567211389541625977 255 255 255
-0.722915291786193848 0.737934112548828125 0.564037322998046875 255 255 255
-0.660722494125366211 0.8186187744140625 0.561101436614990234 255 255 255
-0.680242300033569336 0.665349960327148438 0.568410634994506836 255 255 255
-0.632867574691772461 0.728727340698242188 0.565120935440063477 255 255 255
-0.715013265609741211 0.690336227416992188 0.56686711311340332 255 255 255
-0.659211635589599609 0.700899124145507812 0.565874576568603516 255 255 255
-0.54991072416305542 0.964521408081054688 0.560632228851318359 255 255 255
-0.646204113960266113 0.89913177490234375 0.5604400634765625 255 255 255
-0.582180917263031006 0.982419967651367188 0.55987858772277832 255 255 255
-0.628360629081726074 0.92720794677734375 0.560256719589233398 255 255 255
-0.602133750915527344 0.958292007446289062 0.561005830764770508 255 255 255
-0.615652799606323242 0.998106002807617188 0.56039118766784668 255 255 255
-0.649317502975463867 1.01784324645996094 0.558113813400268555 255 255 255
-0.684206604957580566 0.917543411254882812 0.559701442718505859 255 255 255
-0.659322261810302734 0.946352005004882812 0.558811187744140625 255 255 255
-0.69196784496307373 0.961391448974609375 0.557991743087768555 255 255 255
-0.636919796466827393 0.974740982055664062 0.559368610382080078 255 255 255
-0.668085694313049316 0.994562149047851562 0.558352231979370117 255 255 255
-0.712954044342041016 0.936756134033203125 0.559730052947998047 255 255 255
-0.704199135303497314 0.887533187866210938 0.558212757110595703 255 255 255
-0.669019818305969238 0.866022109985351562 0.558919906616210938 255 255 255
-0.75792163610458374 0.881444931030273438 0.557877540588378906 255 255 255
-0.737773120403289795 0.9171905517578125 0.559325456619262695 255 255 255
-0.702793240547180176 1.01090621948242188 0.55845189094543457 255 255 255
-0.725457668304443359 0.978700637817382812 0.558942556381225586 255 255 255
-0.746489226818084717 0.96050262451171875 0.557379722595214844 255 255 255
-0.778685688972473145 0.927524566650390625 0.558368682861328125 255 255 255
-0.782435297966003418 0.9681243896484375 0.559146404266357422 255 255 255
-0.802567839622497559 0.942262649536132812 0.558243036270141602 255 255 255
-0.759360611438751221 1.00026893615722656 0.557505369186401367 255 255 255
-0.743105471134185791 1.02863883972167969 0.558019638061523438 255 255 255
-0.810075640678405762 0.988491058349609375 0.557154655456542969 255 255 255
-0.857146859169006348 1.05650138854980469 0.555622100830078125 255 255 255
-0.833854734897613525 1.08683204650878906 0.554289579391479492 255 255 255
-0.792648077011108398 1.02341461181640625 0.556331872940063477 255 255 255
-0.900788962841033936 1.00196456909179688 0.555546283721923828 255 255 255
-0.764998316764831543 1.050872802734375 0.555706977844238281 255 255 255
-0.850051283836364746 1.01100730895996094 0.555643558502197266 255 255 255
-0.823214590549468994 1.03380966186523438 0.556595325469970703 255 255 255
-0.875537872314453125 0.985017776489257812 0.557188987731933594 255 255 255
-0.838556468486785889 0.961420059204101562 0.557065725326538086 255 255 255
-0.796769380569458008 1.07002449035644531 0.555804252624511719 255 255 255
-0.881409049034118652 1.02712249755859375 0.556633710861206055 255 255 255
-0.924568057060241699 0.977207183837890625 0.554943561553955078 255 255 255
-0.747100949287414551 0.713563919067382812 0.566393852233886719 255 255 255
-0.711723983287811279 0.813978195190429688 0.560820102691650391 255 255 255
-0.736037254333496094 0.783197402954101562 0.560290098190307617 255 255 255
-0.694131016731262207 0.833040237426757812 0.561219692230224609 255 255 255
-0.765840768814086914 0.79772186279296875 0.560319900512695312 255 255 255
-0.777154028415679932 0.725126266479492188 0.564937114715576172 255 255 255
-0.759278357028961182 0.7533416748046875 0.562032938003540039 255 255 255
-0.81306988000869751 0.73987579345703125 0.564858436584472656 255 255 255
-0.724285244941711426 0.862796783447265625 0.560832738876342773 255 255 255
-0.749703764915466309 0.8310546875 0.557105302810668945 255 255 255
-0.784742236137390137 0.893590927124023438 0.559304475784301758 255 255 255
-0.805172562599182129 0.821117401123046875 0.558372259140014648 255 255 255
-0.84086143970489502 0.765552520751953125 0.563083887100219727 255 255 255
-0.819326877593994141 0.794820785522460938 0.561009407043457031 255 255 255
-0.777684450149536133 0.84920501708984375 0.558758258819580078 255 255 255
-0.793218255043029785 0.772571563720703125 0.561564445495605469 255 255 255
-0.805727481842041016 0.868984222412109375 0.559040069580078125 255 255 255
-0.833448171615600586 0.838701248168945312 0.557306289672851562 255 255 255
-0.858344793319702148 0.810380935668945312 0.558968067169189453 255 255 255
-0.878670096397399902 0.789850234985351562 0.559881210327148438 255 255 255
-0.821058988571166992 0.911527633666992188 0.557688713073730469 255 255 255
-0.868369400501251221 0.855909347534179688 0.557448625564575195 255 255 255
-0.888129353523254395 0.825397491455078125 0.557749748229980469 255 255 255
-0.910106420516967773 0.802366256713867188 0.55805206298828125 255 255 255
-0.850337743759155273 0.889362335205078125 0.557666301727294922 255 255 255
-0.851297378540039062 0.93418121337890625 0.556140899658203125 255 255 255
-0.94230949878692627 0.822912216186523438 0.560378789901733398 255 255 255
-0.922748088836669922 0.84735107421875 0.557033300399780273 255 255 255
-0.901863932609558105 0.884387969970703125 0.555361032485961914 255 255 255
-0.87866818904876709 0.912473678588867188 0.557405710220336914 255 255 255
-0.886046528816223145 0.952442169189453125 0.557321548461914062 255 255 255
-0.974623143672943115 0.842529296875 0.558088541030883789 255 255 255
-0.909754693508148193 0.92513275146484375 0.555365324020385742 255 255 255
-0.959000468254089355 0.869386672973632812 0.555905580520629883 255 255 255
-0.946774840354919434 0.946018218994140625 0.555450201034545898 255 255 255
-0.982235908508300781 0.88675689697265625 0.555766820907592773 255 255 255
-1.01017594337463379 0.8568878173828125 0.557664632797241211 255 255 255
-0.937940537929534912 0.895420074462890625 0.556710243225097656 255 255 255
-0.712797045707702637 1.29917144775390625 0.553968191146850586 255 255 255
-0.73745262622833252 1.28001022338867188 0.552688121795654297 255 255 255
-0.757869601249694824 1.25041961669921875 0.553299665451049805 255 255 255
-0.79242783784866333 1.26449775695800781 0.5526580810546875 255 255 255
-0.782886326313018799 1.22194099426269531 0.555747509002685547 255 255 255
-0.811176180839538574 1.23338508605957031 0.554388999938964844 255 255 255
-0.833515286445617676 1.20831680297851562 0.553114175796508789 255 255 255
-0.798626184463500977 1.18779754638671875 0.553693532943725586 255 255 255
-0.826092541217803955 1.16594886779785156 0.55292820930480957 255 255 255
-0.848166942596435547 1.13588333129882812 0.554078578948974609 255 255 255
-0.900571525096893311 1.12631416320800781 0.553853273391723633 255 255 255
-0.908777117729187012 1.169952392578125 0.55364227294921875 255 255 255
-0.881161391735076904 1.15704917907714844 0.553553342819213867 255 255 255
-0.857156336307525635 1.18193817138671875 0.553222417831420898 255 255 255
-0.892162680625915527 1.1988983154296875 0.552790403366088867 255 255 255
-0.872627735137939453 1.10016822814941406 0.554121732711791992 255 255 255
-0.935296118259429932 1.0220184326171875 0.553933620452880859 255 255 255
-0.88862001895904541 1.07916259765625 0.555275917053222656 255 255 255
-0.916141211986541748 1.04674148559570312 0.554135322570800781 255 255 255
-0.921935915946960449 1.09346389770507812 0.55276942253112793 255 255 255
-0.964184403419494629 1.0375823974609375 0.554119586944580078 255 255 255
-0.950253188610076904 1.06835365295410156 0.553803682327270508 255 255 255
-0.933956384658813477 1.13838577270507812 0.552731990814208984 255 255 255
-0.999636054039001465 1.05322074890136719 0.552537918090820312 255 255 255
-0.978891849517822266 1.08367347717285156 0.554211139678955078 255 255 255
-0.956307828426361084 1.11594200134277344 0.552900791168212891 255 255 255
-1.01376104354858398 1.10413360595703125 0.552808284759521484 255 255 255
-0.989553749561309814 1.1345062255859375 0.55215144157409668 255 255 255
-1.03579390048980713 1.0743560791015625 0.554172515869140625 255 255 255
-1.05011272430419922 1.04734611511230469 0.553013801574707031 255 255 255
-1.0278010368347168 1.03093147277832031 0.554308652877807617 255 255 255
-0.963036656379699707 0.993427276611328125 0.555120468139648438 255 255 255
-0.987718641757965088 1.00659942626953125 0.553834199905395508 255 255 255
-1.04142975807189941 1.00408935546875 0.553752899169921875 255 255 255
-0.978187501430511475 0.963960647583007812 0.554505825042724609 255 255 255
-1.01574373245239258 0.981061935424804688 0.553838014602661133 255 255 255
-1.07821261882781982 1.01794815063476562 0.55459284782409668 255 255 255
-1.09654688835144043 0.986455917358398438 0.552846193313598633 255 255 255
-0.975802123546600342 0.9225006103515625 0.556964635848999023 255 255 255
-1.02080464363098145 0.906072616577148438 0.554935693740844727 255 255 255
-1.05521726608276367 0.92273712158203125 0.555385589599609375 255 255 255
-1.03310227394104004 0.954071044921875 0.554209709167480469 255 255 255
-1.00279760360717773 0.938350677490234375 0.554744958877563477 255 255 255
-1.11426925659179688 0.961521148681640625 0.552596569061279297 255 255 255
-1.06709027290344238 0.975101470947265625 0.553926229476928711 255 255 255
-1.08918452262878418 0.939859390258789062 0.554073333740234375 255 255 255
-1.15273308753967285 0.97554779052734375 0.553575515747070312 255 255 255
-1.07755923271179199 0.8922271728515625 0.554194450378417969 255 255 255
-1.11448395252227783 0.9198455810546875 0.553548336029052734 255 255 255
-1.1427152156829834 0.935281753540039062 0.552997827529907227 255 255 255
-1.04893100261688232 0.878496170043945312 0.555066347122192383 255 255 255
-1.18195235729217529 0.948762893676757812 0.551827669143676758 255 255 255
0.524041116237640381 -0.140165328979492188 -1.42821621894836426 255 255 255
0.502406299114227295 -0.16474151611328125 -1.4231712818145752 255 255 255
0.476160526275634766 -0.196935653686523438 -1.42327284812927246 255 255 255
0.547341763973236084 -0.109996795654296875 -1.4182131290435791 255 255 255
0.503997504711151123 -0.163816452026367188 -1.3855891227722168 255 255 255
0.522076427936553955 -0.140790939331054688 -1.39015674591064453 255 255 255
0.56736832857131958 -0.0824127197265625 -1.38705623149871826 255 255 255
0.477969169616699219 -0.1971588134765625 -1.38867306709289551 255 255 255
0.546854853630065918 -0.110097885131835938 -1.3816070556640625 255 255 255
0.567319154739379883 -0.0832767486572265625 -1.3575749397277832 255 255 255
0.476609647274017334 -0.199579238891601562 -1.35503554344177246 255 255 255
0.547450482845306396 -0.111179351806640625 -1.35355842113494873 255 255 255
0.522352516651153564 -0.136890411376953125 -1.35291147232055664 255 255 255
0.504997789859771729 -0.162990570068359375 -1.35065615177154541 255 255 255
0.460219264030456543 -0.220609664916992188 -1.34838247299194336 255 255 255
0.56615060567855835 -0.080905914306640625 -1.21109366416931152 255 255 255
0.542294025421142578 -0.1126708984375 -1.27976357936859131 255 255 255
0.524795591831207275 -0.135393142700195312 -1.2810823917388916 255 255 255
0.500997602939605713 -0.167369842529296875 -1.24596619606018066 255 255 255
0.502832710742950439 -0.164216995239257812 -1.28071236610412598 255 255 255
0.521813631057739258 -0.13875579833984375 -1.24311661720275879 255 255 255
0.546570301055908203 -0.1061859130859375 -1.24167847633361816 255 255 255
0.499420583248138428 -0.171060562133789062 -1.31624245643615723 255 255 255
0.478784143924713135 -0.196996688842773438 -1.3153693675994873 255 255 255
0.566784083843231201 -0.080047607421875 -1.28222298622131348 255 255 255
0.56696087121963501 -0.0796604156494140625 -1.31607949733734131 255 255 255
0.47805333137512207 -0.1918487548828125 -1.24614572525024414 255 255 255
0.479669094085693359 -0.19707489013671875 -1.2797083854675293 255 255 255
0.566067397594451904 -0.07989501953125 -1.24505841732025146 255 255 255
0.542535066604614258 -0.112043380737304688 -1.31172585487365723 255 255 255
0.457715690135955811 -0.220043182373046875 -1.21365451812744141 255 255 255
0.520674347877502441 -0.14176177978515625 -1.31423306465148926 255 255 255
0.437186121940612793 -0.24849700927734375 -1.4225766658782959 255 255 255
0.412281990051269531 -0.282678604125976562 -1.42533564567565918 255 255 255
0.454474687576293945 -0.226749420166015625 -1.41951429843902588 255 255 255
0.455597877502441406 -0.227140426635742188 -1.39065170288085938 255 255 255
0.415422797203063965 -0.280666351318359375 -1.38723897933959961 255 255 255
0.43820345401763916 -0.250658035278320312 -1.38597464561462402 255 255 255
0.391581296920776367 -0.310863494873046875 -1.35296487808227539 255 255 255
0.348730564117431641 -0.3633575439453125 -1.35456383228302002 255 255 255
0.39286428689956665 -0.309413909912109375 -1.38440322875976562 255 255 255
0.371840238571166992 -0.3360137939453125 -1.38250339031219482 255 255 255
0.370059967041015625 -0.337215423583984375 -1.34970760345458984 255 255 255
0.416087448596954346 -0.278287887573242188 -1.35059845447540283 255 255 255
0.435388863086700439 -0.248659133911132812 -1.34914374351501465 255 255 255
0.388961434364318848 -0.310009002685546875 -1.31679332256317139 255 255 255
0.435051321983337402 -0.249353408813476562 -1.2762218713760376 255 255 255
0.435420036315917969 -0.25154876708984375 -1.31357860565185547 255 255 255
0.415201544761657715 -0.279071807861328125 -1.31573486328125 255 255 255
0.455421090126037598 -0.225610733032226562 -1.27612590789794922 255 255 255
0.387399554252624512 -0.309312820434570312 -1.27915763854980469 255 255 255
0.366926729679107666 -0.33885955810546875 -1.28244102001190186 255 255 255
0.348155736923217773 -0.366201400756835938 -1.28266310691833496 255 255 255
0.454559803009033203 -0.226701736450195312 -1.31445693969726562 255 255 255
0.410618007183074951 -0.280368804931640625 -1.28217470645904541 255 255 255
0.389723479747772217 -0.30947113037109375 -1.2448265552520752 255 255 255
0.370187580585479736 -0.3355560302734375 -1.31132149696350098 255 255 255
0.435459733009338379 -0.249521255493164062 -1.24465584754943848 255 255 255
0.348471522331237793 -0.364105224609375 -1.2426530122756958 255 255 255
0.411375284194946289 -0.278635025024414062 -1.24393439292907715 255 255 255
0.457076549530029297 -0.221448898315429688 -1.24482059478759766 255 255 255
0.367445766925811768 -0.335569381713867188 -1.24382543563842773 255 255 255
0.411501049995422363 -0.278659820556640625 -1.2120215892791748 255 255 255
0.328604698181152344 -0.393741607666015625 -1.38423967361450195 255 255 255
0.306222081184387207 -0.424486160278320312 -1.38829362392425537 255 255 255
0.285892963409423828 -0.447605133056640625 -1.37988829612731934 255 255 255
0.26512986421585083 -0.476400375366210938 -1.38935625553131104 255 255 255
0.346162676811218262 -0.370800018310546875 -1.38575828075408936 255 255 255
0.284263908863067627 -0.4542388916015625 -1.31599211692810059 255 255 255
0.305862784385681152 -0.421413421630859375 -1.35375189781188965 255 255 255
0.328427910804748535 -0.393140792846679688 -1.34553766250610352 255 255 255
0.283664524555206299 -0.450460433959960938 -1.34514784812927246 255 255 255
0.261203408241271973 -0.479394912719726562 -1.35529446601867676 255 255 255
0.238459587097167969 -0.510288238525390625 -1.35089313983917236 255 255 255
0.219352960586547852 -0.534280776977539062 -1.31594467163085938 255 255 255
0.345253169536590576 -0.367986679077148438 -1.31350421905517578 255 255 255
0.304285764694213867 -0.423135757446289062 -1.31245720386505127 255 255 255
0.284747064113616943 -0.447021484375 -1.25024163722991943 255 255 255
0.259467542171478271 -0.481172561645507812 -1.27690064907073975 255 255 255
0.325641632080078125 -0.392505645751953125 -1.28281807899475098 255 255 255
0.327126026153564453 -0.39440155029296875 -1.31267833709716797 255 255 255
0.327963709831237793 -0.393281936645507812 -1.24787020683288574 255 255 255
0.303744971752166748 -0.422903060913085938 -1.24455952644348145 255 255 255
0.261339545249938965 -0.482089996337890625 -1.31623411178588867 255 255 255
0.240544319152832031 -0.508718490600585938 -1.31158506870269775 255 255 255
0.242529749870300293 -0.503231048583984375 -1.28028559684753418 255 255 255
0.260694742202758789 -0.481815338134765625 -1.24836587905883789 255 255 255
0.300895392894744873 -0.427778244018554688 -1.28093218803405762 255 255 255
0.283156812191009521 -0.450557708740234375 -1.27883100509643555 255 255 255
0.238487005233764648 -0.508157730102539062 -1.23890674114227295 255 255 255
0.324916481971740723 -0.394573211669921875 -1.21341383457183838 255 255 255
0.260618150234222412 -0.479236602783203125 -1.21143245697021484 255 255 255
0.303684473037719727 -0.42136383056640625 -1.21785378456115723 255 255 255
0.216923117637634277 -0.534799575805664062 -1.3529437780380249 255 255 255
0.173986315727233887 -0.5903472900390625 -1.35132431983947754 255 255 255
0.197291731834411621 -0.561223983764648438 -1.35042428970336914 255 255 255
0.112334311008453369 -0.621122360229492188 -1.33943963050842285 255 255 255
0.173081517219543457 -0.592966079711914062 -1.3191910982131958 255 255 255
0.147494733333587646 -0.623630523681640625 -1.31916213035583496 255 255 255
0.195198535919189453 -0.563617706298828125 -1.31618356704711914 255 255 255
0.194446861743927002 -0.565326690673828125 -1.23583471775054932 255 255 255
0.173937201499938965 -0.591045379638671875 -1.27949488162994385 255 255 255
0.151189565658569336 -0.621095657348632812 -1.24448919296264648 255 255 255
0.215496420860290527 -0.5391082763671875 -1.27685403823852539 255 255 255
0.11611330509185791 -0.635248184204101562 -1.3116607666015625 255 255 255
0.195520937442779541 -0.56150054931640625 -1.2803037166595459 255 255 255
0.215010464191436768 -0.537628173828125 -1.24721145629882812 255 255 255
0.217345714569091797 -0.536235809326171875 -1.20969295501708984 255 255 255
0.173994839191436768 -0.592184066772460938 -1.24796783924102783 255 255 255
0.153924763202667236 -0.61640167236328125 -1.2841181755065918 255 255 255
0.545261800289154053 -0.107339859008789062 -1.13729023933410645 255 255 255
0.562864184379577637 -0.08148956298828125 -1.10022377967834473 255 255 255
0.543799161911010742 -0.10913848876953125 -1.10564064979553223 255 255 255
0.567726671695709229 -0.0778026580810546875 -1.1761324405670166 255 255 255
0.547357857227325439 -0.105085372924804688 -1.1728438138961792 255 255 255
0.56739574670791626 -0.08026885986328125 -1.13736295700073242 255 255 255
0.543102383613586426 -0.110431671142578125 -1.21019887924194336 255 255 255
0.520409584045410156 -0.136150360107421875 -1.10278844833374023 255 255 255
0.523624122142791748 -0.134344100952148438 -1.2084118127822876 255 255 255
0.519881129264831543 -0.13748931884765625 -1.13772296905517578 255 255 255
0.518480896949768066 -0.140672683715820312 -1.1719973087310791 255 255 255
0.50194019079208374 -0.162736892700195312 -1.13818466663360596 255 255 255
0.49611055850982666 -0.168207168579101562 -1.10143804550170898 255 255 255
0.499401628971099854 -0.16437530517578125 -1.17211461067199707 255 255 255
0.49725264310836792 -0.169097900390625 -1.20844125747680664 255 255 255
0.476046144962310791 -0.194459915161132812 -1.17676341533660889 255 255 255
0.476447939872741699 -0.193136215209960938 -1.14262247085571289 255 255 255
0.477239310741424561 -0.19354248046875 -1.10352373123168945 255 255 255
0.480344176292419434 -0.1915283203125 -1.20653343200683594 255 255 255
0.475486457347869873 -0.196477890014648438 -1.07519793510437012 255 255 255
0.496691048145294189 -0.1643218994140625 -1.0668032169342041 255 255 255
0.564779698848724365 -0.078098297119140625 -1.06917572021484375 255 255 255
0.539976716041564941 -0.109674453735351562 -1.06840014457702637 255 255 255
0.523570239543914795 -0.136104583740234375 -1.0745089054107666 255 255 255
0.455825746059417725 -0.217500686645507812 -1.06306707859039307 255 255 255
0.499050915241241455 -0.162637710571289062 -0.965668380260467529 255 255 255
0.541591525077819824 -0.108324050903320312 -0.995395541191101074 255 255 255
0.518411874771118164 -0.138885498046875 -1.00258708000183105 255 255 255
0.562964439392089844 -0.081943511962890625 -1.0280081033706665 255 255 255
0.476345837116241455 -0.191156387329101562 -1.03474807739257812 255 255 255
0.562417030334472656 -0.0815792083740234375 -0.998189210891723633 255 255 255
0.515995264053344727 -0.135663986206054688 -0.965271413326263428 255 255 255
0.560444772243499756 -0.0797939300537109375 -0.960646748542785645 255 255 255
0.493658006191253662 -0.1675567626953125 -1.00115156173706055 255 255 255
0.474555134773254395 -0.193651199340820312 -0.999144911766052246 255 255 255
0.53939521312713623 -0.109140396118164062 -1.03137969970703125 255 255 255
0.500739455223083496 -0.16486358642578125 -1.03114283084869385 255 255 255
0.520674347877502441 -0.136932373046875 -1.03229522705078125 255 255 255
0.36611175537109375 -0.340053558349609375 -1.21108913421630859 255 255 255
0.434397041797637939 -0.249395370483398438 -1.2068169116973877 255 255 255
0.392574012279510498 -0.303546905517578125 -1.17689943313598633 255 255 255
0.389842629432678223 -0.310297012329101562 -1.20596551895141602 255 255 255
0.367662310600280762 -0.336553573608398438 -1.1766510009765625 255 255 255
0.455065608024597168 -0.22137451171875 -1.17299771308898926 255 255 255
0.435347259044647217 -0.249782562255859375 -1.17293882369995117 255 255 255
0.413015663623809814 -0.27690887451171875 -1.17077875137329102 255 255 255
0.413223624229431152 -0.277265548706054688 -1.14163875579833984 255 255 255
0.429244339466094971 -0.2523345947265625 -1.10240030288696289 255 255 255
0.454849064350128174 -0.224416732788085938 -1.1413111686706543 255 255 255
0.390242516994476318 -0.307825088500976562 -1.14193427562713623 255 255 255
0.433894097805023193 -0.250011444091796875 -1.14072811603546143 255 255 255
0.36754220724105835 -0.33473968505859375 -1.14308905601501465 255 255 255
0.453323125839233398 -0.2226104736328125 -1.10275411605834961 255 255 255
0.365117132663726807 -0.338144302368164062 -1.10322475433349609 255 255 255
0.409266948699951172 -0.277904510498046875 -1.10232663154602051 255 255 255
0.389265894889831543 -0.3056182861328125 -1.10202419757843018 255 255 255
0.345318436622619629 -0.3639068603515625 -1.09925079345703125 255 255 255
0.410485625267028809 -0.277805328369140625 -1.07039237022399902 255 255 255
0.367585718631744385 -0.33699798583984375 -1.07089102268218994 255 255 255
0.431193888187408447 -0.2516632080078125 -1.06817173957824707 255 255 255
0.389518320560455322 -0.305025100708007812 -1.06459498405456543 255 255 255
0.387397646903991699 -0.308229446411132812 -1.03323817253112793 255 255 255
0.34612584114074707 -0.362611770629882812 -1.02895450592041016 255 255 255
0.365989804267883301 -0.335367202758789062 -1.03083646297454834 255 255 255
0.412967443466186523 -0.27392578125 -1.03011238574981689 255 255 255
0.453460216522216797 -0.222015380859375 -1.02834820747375488 255 255 255
0.40871196985244751 -0.279010772705078125 -0.998074710369110107 255 255 255
0.388168215751647949 -0.304792404174804688 -0.997105300426483154 255 255 255
0.43143308162689209 -0.253057479858398438 -1.02831602096557617 255 255 255
0.366473853588104248 -0.332454681396484375 -0.997609496116638184 255 255 255
0.455747246742248535 -0.216981887817382812 -0.963474452495574951 255 255 255
0.383236706256866455 -0.306676864624023438 -0.960163414478302002 255 255 255
0.345047056674957275 -0.361370086669921875 -0.996402323246002197 255 255 255
0.432041943073272705 -0.250202178955078125 -0.994023799896240234 255 255 255
0.454322457313537598 -0.222986221313476562 -0.993834018707275391 255 255 255
0.407380759716033936 -0.28009796142578125 -0.96232759952545166 255 255 255
0.54133152961730957 -0.105218887329101562 -0.961048305034637451 255 255 255
0.559075772762298584 -0.0797252655029296875 -0.923512101173400879 255 255 255
0.537677347660064697 -0.107477188110351562 -0.928868293762207031 255 255 255
0.534423112869262695 -0.101133346557617188 -0.856733202934265137 255 255 255
0.557648122310638428 -0.0772552490234375 -0.891578853130340576 255 255 255
0.535645604133605957 -0.105699539184570312 -0.890119552612304688 255 255 255
0.511378645896911621 -0.13237762451171875 -0.857724189758300781 255 255 255
0.518073379993438721 -0.132139205932617188 -0.926122546195983887 255 255 255
0.495702087879180908 -0.159069061279296875 -0.897069692611694336 255 255 255
0.514262259006500244 -0.132280349731445312 -0.894450962543487549 255 255 255
0.497093796730041504 -0.158227920532226562 -0.925968825817108154 255 255 255
0.473412096500396729 -0.19094085693359375 -0.921772420406341553 255 255 255
0.470437705516815186 -0.189172744750976562 -0.891168296337127686 255 255 255
0.475014626979827881 -0.192600250244140625 -0.957705080509185791 255 255 255
0.465116679668426514 -0.189960479736328125 -0.857536494731903076 255 255 255
0.555638134479522705 -0.0762119293212890625 -0.854696571826934814 255 255 255
0.488500595092773438 -0.159648895263671875 -0.850838005542755127 255 255 255
0.553221523761749268 -0.071727752685546875 -0.822660326957702637 255 255 255
0.529401779174804688 -0.104528427124023438 -0.820277929306030273 255 255 255
0.4622841477394104 -0.187520980834960938 -0.821025550365447998 255 255 255
0.506663680076599121 -0.131069183349609375 -0.81955718994140625 255 255 255
0.505791008472442627 -0.131114959716796875 -0.787404060363769531 255 255 255
0.480050146579742432 -0.164392471313476562 -0.819843888282775879 255 255 255
0.551254987716674805 -0.072711944580078125 -0.750347256660461426 255 255 255
0.466117024421691895 -0.184617996215820312 -0.787349402904510498 255 255 255
0.506793200969696045 -0.129236221313476562 -0.753545224666595459 255 255 255
0.528910160064697266 -0.105493545532226562 -0.789127647876739502 255 255 255
0.55102241039276123 -0.074283599853515625 -0.781526327133178711 255 255 255
0.531132936477661133 -0.09877777099609375 -0.750690937042236328 255 255 255
0.482878923416137695 -0.1581573486328125 -0.781638801097869873 255 255 255
0.461758434772491455 -0.187412261962890625 -0.745746195316314697 255 255 255
0.483948230743408203 -0.160444259643554688 -0.744872391223907471 255 255 255
0.551817536354064941 -0.073314666748046875 -0.712780237197875977 255 255 255
0.530925869941711426 -0.0992412567138671875 -0.713251948356628418 255 255 255
0.4837912917137146 -0.15991973876953125 -0.719981789588928223 255 255 255
0.465423047542572021 -0.182668685913085938 -0.71303856372833252 255 255 255
0.443948030471801758 -0.209035873413085938 -0.713039696216583252 255 255 255
0.505510210990905762 -0.130228042602539062 -0.712915718555450439 255 255 255
0.363561868667602539 -0.335599899291992188 -0.958791494369506836 255 255 255
0.427885711193084717 -0.254629135131835938 -0.960233032703399658 255 255 255
0.384033739566802979 -0.306718826293945312 -0.929786324501037598 255 255 255
0.407164275646209717 -0.277278900146484375 -0.927027523517608643 255 255 255
0.36514359712600708 -0.333604812622070312 -0.927241086959838867 255 255 255
0.426320075988769531 -0.248872756958007812 -0.926370561122894287 255 255 255
0.449461877346038818 -0.2200469970703125 -0.926899909973144531 255 255 255
0.447686314582824707 -0.216823577880859375 -0.889745116233825684 255 255 255
0.363572239875793457 -0.333292007446289062 -0.895156979560852051 255 255 255
0.427548229694366455 -0.2454986572265625 -0.892218351364135742 255 255 255
0.342742085456848145 -0.36092376708984375 -0.891058981418609619 255 255 255
0.402704536914825439 -0.275848388671875 -0.889151930809020996 255 255 255
0.382255375385284424 -0.304965972900390625 -0.890619277954101562 255 255 255
0.401430070400238037 -0.272640228271484375 -0.85504758358001709 255 255 255
0.444550275802612305 -0.2170867919921875 -0.85526275634765625 255 255 255
0.422424793243408203 -0.2455902099609375 -0.856430947780609131 255 255 255
0.380539357662200928 -0.304126739501953125 -0.854309260845184326 255 255 255
0.364419400691986084 -0.332586288452148438 -0.85902857780456543 255 255 255
0.442197978496551514 -0.215732574462890625 -0.823491096496582031 255 255 255
0.420800507068634033 -0.243783950805664062 -0.823027253150939941 255 255 255
0.362677872180938721 -0.334300994873046875 -0.820602476596832275 255 255 255
0.397154748439788818 -0.270910263061523438 -0.81826096773147583 255 255 255
0.34509432315826416 -0.360830307006835938 -0.817405045032501221 255 255 255
0.379935204982757568 -0.305370330810546875 -0.813033699989318848 255 255 255
0.378076434135437012 -0.305818557739257812 -0.751575827598571777 255 255 255
0.442491054534912109 -0.212903976440429688 -0.780954062938690186 255 255 255
0.397814691066741943 -0.271425247192382812 -0.781820833683013916 255 255 255
0.420181214809417725 -0.242433547973632812 -0.782217442989349365 255 255 255
0.362612605094909668 -0.334512710571289062 -0.749628067016601562 255 255 255
0.380707621574401855 -0.304689407348632812 -0.781571090221405029 255 255 255
0.36358267068862915 -0.336032867431640625 -0.785393178462982178 255 255 255
0.39403003454208374 -0.27344512939453125 -0.74968719482421875 255 255 255
0.419709444046020508 -0.24117279052734375 -0.749556422233581543 255 255 255
0.365719377994537354 -0.331676483154296875 -0.713047325611114502 255 255 255
0.396266937255859375 -0.272314071655273438 -0.709317147731781006 255 255 255
0.420292794704437256 -0.238414764404296875 -0.709949791431427002 255 255 255
0.444052040576934814 -0.211225509643554688 -0.744634032249450684 255 255 255
0.37809443473815918 -0.304775238037109375 -0.710174620151519775 255 255 255
0.346972942352294922 -0.363122940063476562 -1.21018922328948975 255 255 255
0.347979843616485596 -0.36431884765625 -1.17967343330383301 255 255 255
0.34603506326675415 -0.364927291870117188 -1.14080476760864258 255 255 255
0.322687089443206787 -0.391283035278320312 -1.10288763046264648 255 255 255
0.302468597888946533 -0.4246673583984375 -1.13999724388122559 255 255 255
0.27952343225479126 -0.452388763427734375 -1.1394195556640625 255 255 255
0.322347700595855713 -0.395257949829101562 -1.13849759101867676 255 255 255
0.260042369365692139 -0.477159500122070312 -1.13544631004333496 255 255 255
0.305015683174133301 -0.4173431396484375 -1.10489118099212646 255 255 255
0.283083975315093994 -0.447658538818359375 -1.17095208168029785 255 255 255
0.324205517768859863 -0.395135879516601562 -1.17764794826507568 255 255 255
0.303986072540283203 -0.421312332153320312 -1.1768641471862793 255 255 255
0.280516147613525391 -0.451436996459960938 -1.20825362205505371 255 255 255
0.238963484764099121 -0.5078887939453125 -1.14321684837341309 255 255 255
0.258926749229431152 -0.4797821044921875 -1.17253398895263672 255 255 255
0.240708827972412109 -0.506753921508789062 -1.20520639419555664 255 255 255
0.259364485740661621 -0.479969024658203125 -1.09981203079223633 255 255 255
0.281617581844329834 -0.448352813720703125 -1.10156416893005371 255 255 255
0.257855534553527832 -0.47907257080078125 -1.06915819644927979 255 255 255
0.303950130939483643 -0.416837692260742188 -1.06844305992126465 255 255 255
0.344550728797912598 -0.3658447265625 -1.06625664234161377 255 255 255
0.326830089092254639 -0.388118743896484375 -1.06592178344726562 255 255 255
0.27597421407699585 -0.450557708740234375 -1.06414914131164551 255 255 255
0.23572152853012085 -0.505359649658203125 -1.03169941902160645 255 255 255
0.298429667949676514 -0.421884536743164062 -0.992242038249969482 255 255 255
0.299247443675994873 -0.418802261352539062 -0.964672863483428955 255 255 255
0.275201737880706787 -0.447435379028320312 -0.964153885841369629 255 255 255
0.31908869743347168 -0.39251708984375 -0.963329911231994629 255 255 255
0.342978417873382568 -0.362821578979492188 -0.958803892135620117 255 255 255
0.25551837682723999 -0.474609375 -0.959018886089324951 255 255 255
0.281640291213989258 -0.447134017944335938 -1.02917492389678955 255 255 255
0.257057607173919678 -0.478183746337890625 -1.02725362777709961 255 255 255
